ncols        550
nrows        50
xllcorner    505010.324996
yllcorner    5268293.50671
cellsize     33.365178000000
NODATA_value  9999
407 403 396 385 371 362 364 380 396 409 416 417 407 385 361 342 330 321 311 311 329 350 370 389 399 396 379 363 350 340 331 320 308 297 286 272 257 242 227 212 196 182 178 181 195 211 224 236 248 258 265 272 280 285 288 290 291 288 281 267 256 257 267 274 274 267 256 251 250 258 273 293 314 330 337 348 362 374 387 395 400 411 430 446 456 465 478 495 517 542 561 572 578 584 589 597 603 607 611 615 622 629 638 648 659 670 675 681 688 694 698 703 708 713 716 722 729 735 743 752 757 758 757 756 754 751 748 744 736 725 711 698 688 681 675 669 662 656 653 650 644 636 628 621 612 599 586 571 556 544 534 523 508 492 473 458 449 439 428 419 409 398 386 374 366 363 362 358 349 344 339 330 324 323 322 323 324 327 332 334 333 331 331 330 326 322 320 319 319 320 321 322 323 323 323 321 314 304 297 291 286 285 283 279 274 274 276 273 267 261 253 241 229 219 212 203 194 186 177 169 160 152 147 142 137 135 139 146 151 158 167 172 169 158 147 134 121 114 117 126 135 146 164 176 183 185 183 184 188 192 196 203 212 223 233 242 252 262 270 278 285 290 288 279 265 248 234 222 207 189 172 158 143 128 114 100 88 76 68 59 51 47 46 48 53 59 66 74 81 86 93 101 111 119 129 140 149 151 145 132 120 106 89 73 69 79 91 102 105 101 93 83 71 58 45 34 30 37 48 56 66 73 78 83 86 88 89 84 78 72 67 63 60 61 60 58 53 50 47 40 32 25 24 31 41 49 56 60 60 58 54 48 42 38 37 37 40 44 48 51 52 54 55 52 47 46 50 56 62 67 72 74 74 70 67 70 76 83 92 101 105 108 111 114 115 114 109 103 97 92 88 86 82 78 76 72 68 66 62 60 58 56 55 53 52 49 47 46 47 48 49 50 52 53 55 57 58 59 60 60 60 59 59 58 56 54 52 50 48 46 44 45 47 49 50 50 50 50 50 48 44 39 33 25 16 9 12 22 31 34 34 34 32 28 24 19 13 7 7 15 26 33 34 32 32 32 32 31 29 26 23 20 17 15 13 10 6 2 2 6 10 13 16 19 21 24 28 31 33 35 37 38 35 30 24 17 11 10 11 12 12 13 13 14 14 14 15 17 19 20 21 22 22 25 27 29 29 29 29 29 30 30 31 32 32 32 32 32 31 31 32 33 34 36 38 39 39 39 40 41 42 45 47 49 50 50 50 52 54 56
398 391 386 375 363 354 358 373 389 403 411 411 399 375 351 336 331 324 312 307 320 343 365 381 388 380 363 349 339 331 321 308 296 287 279 267 251 233 217 204 189 178 176 180 189 201 215 228 241 251 258 263 272 279 281 281 281 278 269 256 248 251 259 265 262 254 245 243 249 263 281 300 316 325 332 345 360 370 380 391 398 409 423 438 451 462 475 490 507 526 542 553 560 566 573 581 587 592 596 602 609 617 628 638 648 660 671 678 686 691 695 700 704 710 714 721 728 734 741 748 754 756 755 754 751 747 744 740 731 716 700 686 676 667 658 651 647 641 636 632 627 619 613 606 596 587 576 564 548 534 522 511 495 479 462 450 440 429 419 408 398 389 378 369 362 354 351 346 339 331 324 317 312 306 304 306 310 313 319 321 321 320 320 321 321 320 318 316 317 318 319 321 321 322 324 324 319 313 308 306 303 300 297 295 289 288 289 288 282 273 264 253 241 229 220 210 199 191 181 173 166 158 152 145 137 133 132 133 137 143 152 158 159 152 141 131 121 113 115 125 134 144 158 169 176 178 176 178 184 191 197 205 214 223 233 242 250 256 263 270 276 282 283 275 261 245 230 217 203 184 167 153 137 121 108 97 86 74 65 59 52 47 45 46 51 56 64 72 79 85 93 100 107 116 125 134 144 148 143 132 120 106 89 73 66 72 82 94 98 95 90 80 66 52 38 29 29 37 49 58 66 74 78 81 81 80 78 73 67 63 60 57 55 55 56 55 48 42 38 34 26 21 24 35 47 55 60 63 62 59 55 48 40 35 32 33 36 38 41 45 47 49 50 47 43 44 49 54 59 65 70 71 69 65 65 70 76 82 89 96 100 104 108 111 112 111 108 103 97 92 88 86 82 78 75 71 68 65 63 61 59 57 57 56 53 51 48 46 45 45 47 47 50 52 53 55 57 58 59 60 60 60 60 59 57 55 53 51 50 48 45 43 44 47 49 49 49 49 48 47 44 40 33 24 15 9 13 23 31 32 32 31 29 25 19 15 10 7 13 24 31 35 36 35 34 34 33 32 31 29 26 23 20 18 16 14 12 7 3 2 3 7 12 16 20 24 27 30 33 35 37 39 38 32 25 17 11 9 10 11 11 12 12 12 14 15 16 16 17 19 20 21 21 23 26 28 29 30 30 30 30 30 30 32 34 35 34 34 34 33 33 34 36 38 40 41 41 41 41 41 43 45 46 47 48 49 49 52 55 57
396 386 378 367 356 348 351 366 382 396 405 403 388 364 345 335 332 327 315 304 314 338 360 373 374 361 346 336 328 320 308 295 283 277 271 261 246 230 213 199 186 177 175 180 189 201 215 226 238 247 253 258 264 272 274 272 269 265 257 249 243 244 252 256 249 241 239 245 256 273 289 303 313 317 325 338 351 359 368 380 391 401 413 427 440 452 464 476 488 502 515 526 536 544 554 562 570 577 584 593 600 609 621 632 640 650 662 672 681 687 692 699 703 709 713 719 727 734 741 747 752 754 753 750 746 742 739 734 722 708 692 678 666 653 641 633 628 624 618 615 609 606 600 592 584 577 569 557 543 528 514 500 486 470 455 444 435 425 413 402 394 386 377 370 363 356 349 342 336 330 324 320 314 305 297 294 296 299 305 309 310 309 311 316 320 319 316 314 314 315 317 318 321 322 323 324 323 320 319 319 317 314 312 309 304 302 302 301 295 285 272 259 249 237 224 212 201 193 183 175 167 162 159 153 144 137 132 129 127 130 136 142 146 144 136 126 117 110 112 122 131 140 148 157 163 164 170 178 184 192 201 208 215 223 232 238 245 249 254 260 267 274 277 271 260 245 230 216 200 182 164 149 133 117 104 93 84 75 67 62 56 49 44 44 49 55 62 68 76 83 91 97 105 116 125 132 138 142 141 131 119 106 89 72 63 67 74 83 87 88 84 74 60 46 34 27 29 36 46 55 63 69 73 75 75 71 67 65 61 58 55 52 50 50 53 53 47 40 35 29 21 18 23 35 47 55 60 62 60 57 52 45 38 33 30 29 31 33 37 40 43 44 44 41 39 43 48 52 56 61 66 67 63 61 63 68 73 77 83 89 96 102 107 111 112 110 106 102 97 92 89 86 82 78 75 71 69 66 64 62 61 60 58 57 56 54 50 47 45 44 46 46 48 50 52 53 55 57 58 59 60 60 60 59 57 55 53 52 51 49 45 43 42 44 45 47 47 47 47 46 44 41 34 24 14 9 14 24 30 31 31 29 25 21 15 10 7 15 25 32 35 37 37 36 35 35 34 33 32 31 29 26 23 20 18 16 14 11 8 5 2 2 6 13 17 20 23 27 30 34 36 38 37 34 27 18 11 9 10 10 11 11 11 13 14 15 16 17 18 19 20 21 21 22 24 25 27 29 29 29 30 30 31 32 33 35 36 36 36 35 35 35 37 39 41 42 43 43 44 45 46 47 47 48 48 49 49 52 55 58
399 387 374 361 350 342 344 355 370 384 394 389 372 352 339 334 332 325 312 301 309 333 354 363 357 344 333 324 316 308 296 284 272 266 261 252 241 228 212 196 181 175 175 181 194 208 222 233 242 249 253 258 262 266 266 263 259 253 248 243 237 238 243 241 234 233 240 249 263 277 290 299 304 309 320 334 342 349 357 367 378 390 402 414 428 442 453 461 467 475 487 500 513 524 535 543 552 560 572 583 593 602 613 625 635 644 654 666 676 683 689 695 702 708 712 718 724 732 739 745 752 753 750 747 742 738 734 727 715 701 686 671 656 640 627 619 614 610 606 602 597 594 588 582 579 573 563 550 538 523 508 494 481 465 453 442 433 426 416 408 403 397 387 381 374 366 358 351 346 341 337 332 324 314 303 294 287 287 292 295 297 297 305 313 319 318 314 310 310 312 314 316 318 320 322 323 323 323 323 322 320 320 319 318 315 312 310 307 302 293 280 266 253 239 225 214 205 197 189 180 173 167 165 160 152 144 136 131 127 124 124 127 132 132 130 123 113 107 109 118 128 136 140 143 146 154 168 181 188 195 201 208 215 222 228 234 235 237 245 252 259 267 271 267 258 244 231 217 200 182 166 150 134 118 105 94 84 77 70 63 56 49 44 42 48 53 59 67 75 81 89 95 103 114 121 128 133 137 136 127 117 104 90 74 61 60 67 74 79 81 78 70 57 43 32 25 27 33 39 47 56 62 63 63 63 61 59 56 53 51 50 49 47 47 49 49 47 41 35 26 17 16 22 34 45 51 56 56 54 50 46 40 35 32 28 26 28 29 31 35 38 40 40 39 38 42 46 51 55 59 64 63 59 57 59 64 69 74 80 87 94 100 106 110 112 110 105 99 95 92 89 86 81 79 75 71 69 67 65 64 62 61 60 60 58 55 51 47 44 44 44 45 47 48 50 52 53 55 57 59 59 59 59 58 56 54 54 52 51 49 47 43 40 41 43 45 46 46 46 45 44 42 37 28 15 9 17 25 29 29 29 27 23 17 12 7 12 27 36 39 39 38 38 37 36 35 34 34 34 33 31 28 25 21 19 17 15 14 12 10 7 3 1 5 10 14 18 20 24 28 32 35 35 33 28 21 14 10 10 10 10 10 12 13 13 15 17 18 19 20 20 20 22 22 23 25 25 27 28 28 30 30 30 30 32 35 37 38 38 38 37 37 38 40 41 42 44 46 47 48 49 50 50 50 50 50 50 52 54 56
402 391 380 365 348 334 333 344 359 372 381 375 359 342 334 332 328 321 308 298 308 331 350 352 343 330 320 312 305 297 288 276 265 256 250 244 235 224 209 192 175 169 173 185 199 214 225 233 240 247 252 257 260 260 259 256 252 245 240 236 231 229 230 229 227 234 243 252 265 275 282 287 293 302 315 326 332 337 347 354 362 374 386 398 412 428 440 447 451 455 463 476 492 506 517 527 537 546 557 570 583 593 603 614 626 637 648 659 671 681 688 695 702 709 712 716 724 731 739 748 752 752 750 745 740 735 727 719 710 697 683 665 646 630 617 609 605 601 598 594 591 587 579 575 571 566 555 543 532 519 505 493 481 466 455 448 441 434 425 417 412 407 400 395 388 380 372 363 357 353 348 341 332 322 312 302 290 281 279 280 282 287 298 311 320 318 312 307 305 309 312 313 316 318 321 321 322 323 323 321 320 319 319 318 316 312 309 306 302 296 286 273 260 246 233 221 212 203 195 188 181 178 173 167 160 152 144 136 131 126 121 118 119 120 119 116 110 105 107 114 123 131 134 135 139 150 168 182 189 195 200 205 211 217 223 228 228 230 238 247 253 260 265 265 259 248 232 217 203 186 170 153 138 123 110 97 86 79 71 61 55 49 43 40 42 49 57 66 75 82 88 94 101 108 115 122 128 130 128 121 113 102 89 73 59 55 60 67 73 75 74 68 57 44 34 26 23 28 34 39 46 50 51 53 52 50 49 49 48 46 44 43 43 43 46 47 46 44 38 27 15 13 20 31 38 44 49 48 43 40 39 36 32 29 26 24 25 25 28 32 34 35 35 35 37 41 45 49 53 57 60 58 55 55 59 65 70 74 80 84 89 96 103 109 110 109 104 99 95 91 89 85 80 77 75 71 69 68 66 64 63 61 61 59 57 54 51 47 44 43 42 44 45 47 47 50 52 54 56 57 58 58 58 57 56 55 54 52 50 50 47 43 40 39 41 42 44 44 44 44 43 41 39 30 15 9 17 24 26 26 25 23 18 12 7 8 22 37 43 43 41 40 40 38 36 35 34 34 34 33 31 30 27 24 21 18 16 16 14 13 11 7 3 1 2 6 9 12 15 18 24 29 31 31 26 20 13 9 9 10 10 11 13 14 14 16 18 19 20 21 22 23 23 23 25 26 27 28 29 30 30 30 31 31 34 36 38 39 40 39 39 39 39 40 41 42 44 46 48 50 52 53 54 53 53 53 53 53 55 57
403 396 383 367 347 328 323 333 348 359 366 361 347 334 329 327 321 310 298 294 308 328 342 341 328 316 309 303 294 286 280 272 262 251 241 233 225 214 199 183 170 168 175 188 198 208 218 225 230 239 245 248 248 246 247 245 240 236 232 228 223 222 223 223 225 232 240 248 260 266 270 275 286 296 306 314 322 328 334 340 349 358 370 381 394 408 420 429 436 440 447 459 474 488 501 513 524 535 545 557 570 582 594 604 616 630 642 654 667 679 688 696 702 709 712 717 724 732 739 747 752 752 750 744 738 731 721 712 704 691 677 658 638 622 609 602 598 594 592 588 585 579 573 568 562 555 545 534 522 510 501 492 482 469 457 452 448 443 434 425 419 415 409 404 397 388 380 370 360 351 342 334 326 320 313 306 295 283 275 272 275 283 296 310 317 315 309 301 299 306 309 310 314 316 318 321 322 322 320 317 315 311 307 306 306 302 297 296 295 293 287 276 265 253 240 231 221 211 201 194 190 186 180 174 167 160 152 144 137 132 126 119 115 112 111 109 106 103 105 111 119 124 126 131 139 152 169 182 189 194 198 202 205 210 215 217 218 222 230 240 247 254 260 262 260 251 234 219 204 191 176 159 143 128 114 100 89 81 72 63 56 50 43 39 39 45 54 65 73 81 88 93 98 103 109 115 119 122 121 115 107 97 84 69 55 51 55 61 67 71 70 63 54 44 34 26 20 23 28 33 39 42 43 45 46 44 42 43 42 41 40 38 39 41 43 44 44 42 36 27 15 9 14 24 32 36 37 36 34 34 32 31 29 25 22 20 22 24 26 28 30 31 31 33 36 41 44 48 52 55 57 54 52 53 58 65 69 72 74 79 85 92 100 107 110 107 103 99 96 93 89 85 81 79 75 71 69 68 67 65 63 61 60 58 55 53 50 46 44 42 42 42 44 45 47 48 50 52 54 56 57 57 57 56 55 53 53 52 50 49 47 43 40 38 38 40 42 43 43 43 42 41 39 30 15 8 16 21 23 24 22 18 14 8 8 19 34 42 44 42 40 40 40 38 36 34 33 33 33 33 33 30 27 25 22 20 18 16 16 14 13 10 7 4 2 1 2 5 8 10 15 22 26 24 18 11 9 9 9 9 11 13 14 15 16 16 18 20 21 22 23 24 25 25 25 27 28 28 30 31 31 32 32 34 36 38 40 41 41 41 41 40 40 41 42 43 44 46 49 51 53 55 56 56 55 55 55 55 56 58
400 395 383 369 349 326 315 320 333 345 351 346 335 326 322 320 311 297 287 291 308 325 333 328 316 306 300 294 285 277 272 267 261 250 237 225 213 200 187 174 167 168 173 185 193 199 206 212 218 227 233 234 233 231 230 228 224 223 223 220 215 214 216 220 225 231 236 242 250 257 263 271 280 290 295 300 309 317 322 328 335 343 353 363 375 387 399 410 420 427 435 446 460 474 488 500 512 524 535 545 558 570 582 595 609 622 635 648 662 675 687 695 702 710 714 720 726 733 738 745 751 751 749 745 737 730 720 708 698 686 671 651 631 613 599 592 588 586 586 584 579 574 569 562 553 544 535 524 514 505 498 492 484 475 463 455 451 446 437 429 422 418 413 407 400 389 377 365 353 340 327 318 313 311 308 303 296 286 275 268 272 281 292 303 312 310 302 291 289 299 305 307 310 313 316 319 320 320 317 312 306 299 293 292 292 289 283 283 283 283 281 276 271 263 252 239 229 219 210 202 197 194 187 179 173 167 159 152 145 139 132 124 117 114 112 109 105 102 100 105 113 116 120 130 143 156 171 181 188 193 196 198 201 204 208 210 211 217 226 234 243 249 254 259 258 252 239 224 210 195 180 164 149 134 119 103 92 83 74 66 59 53 45 38 37 42 53 63 72 81 88 93 96 100 104 108 112 115 115 110 102 92 81 67 54 48 50 55 61 65 65 59 51 43 34 25 19 18 21 26 33 36 37 38 39 38 37 37 37 37 36 36 37 39 42 42 41 38 34 25 13 8 12 21 26 30 30 27 27 29 28 26 23 19 17 17 19 21 24 26 28 29 29 32 36 40 42 46 50 52 53 51 49 51 56 61 65 68 69 74 83 90 98 104 108 107 105 101 97 94 90 87 82 78 75 71 69 67 66 64 61 59 58 56 53 51 49 46 44 42 41 42 43 44 46 48 50 52 54 55 56 56 56 56 54 52 52 51 49 48 46 43 41 38 36 37 40 41 42 42 41 40 37 29 14 8 13 19 22 21 19 14 10 5 14 30 42 46 43 39 37 38 38 36 34 33 32 31 32 32 31 28 25 25 25 24 20 18 16 15 15 13 12 10 6 2 0 1 4 6 10 16 20 17 10 8 8 9 11 13 15 16 16 17 17 17 18 20 22 23 24 25 26 26 27 29 29 30 31 32 32 32 34 36 38 40 42 43 44 44 43 43 43 43 44 45 46 47 50 52 55 57 59 59 59 58 58 58 58 58
390 387 376 364 347 323 307 305 316 329 334 330 322 314 310 308 298 285 280 290 310 322 324 316 306 297 289 283 277 270 266 260 255 244 231 216 202 188 177 168 165 167 170 176 185 190 192 198 205 211 215 216 214 213 211 211 210 210 210 210 209 211 215 220 226 231 234 237 243 249 256 264 272 280 283 289 295 304 309 315 322 328 336 346 356 367 378 391 402 412 421 433 448 462 474 486 497 509 523 536 548 559 571 583 597 611 627 644 659 672 685 696 704 713 718 723 728 732 737 744 750 750 751 746 738 730 719 706 692 677 660 642 626 608 592 580 575 576 579 577 572 567 561 554 542 531 523 515 507 501 496 492 483 474 465 454 449 443 436 430 425 422 417 407 400 389 379 366 349 333 317 303 298 296 294 290 287 280 271 265 266 274 285 294 300 299 292 281 281 290 298 302 306 310 315 317 318 317 312 305 296 288 282 279 279 277 272 270 270 270 270 269 269 265 257 248 238 228 219 211 206 201 193 185 179 173 167 159 153 147 140 132 124 118 115 112 109 103 99 100 106 111 118 129 140 154 169 179 184 190 193 195 197 200 203 204 207 213 220 228 236 243 248 252 255 251 241 227 213 199 182 165 150 137 123 109 97 85 76 69 63 57 47 37 35 41 53 63 72 82 88 91 94 96 98 100 104 108 109 105 96 87 78 66 53 45 45 49 54 58 59 55 49 42 36 30 23 17 15 18 25 29 28 30 34 34 33 32 32 32 32 33 35 37 38 36 33 29 25 17 10 7 7 13 18 19 19 18 19 19 19 19 17 15 13 14 17 20 22 24 25 26 28 31 34 38 40 43 46 48 49 47 46 48 53 57 59 62 66 72 80 89 96 102 107 108 107 104 100 97 92 88 83 79 76 72 69 67 65 63 61 59 56 53 51 49 46 44 42 40 40 40 41 44 46 48 50 51 52 53 54 54 54 54 53 52 51 49 48 46 44 42 40 38 35 35 37 39 39 39 39 37 32 24 12 8 12 16 20 19 15 11 8 12 23 31 41 47 43 38 35 34 34 34 33 31 30 29 29 29 27 25 25 26 28 26 22 20 19 17 17 15 13 13 10 6 3 1 1 4 7 11 14 10 7 10 13 15 18 20 20 20 20 20 20 20 20 22 24 25 26 26 26 28 29 30 31 32 32 33 34 34 36 38 39 41 43 45 46 47 47 47 47 47 47 47 47 48 50 53 56 58 60 61 61 61 60 60 60 60
371 370 363 353 339 317 298 289 297 310 317 314 307 300 296 294 287 278 276 289 309 318 315 305 296 285 275 269 266 264 259 252 243 235 224 209 194 180 173 165 164 165 167 169 174 179 180 184 190 193 194 197 198 199 198 199 201 204 206 207 210 214 220 227 233 235 236 238 241 245 251 258 264 270 275 281 286 292 297 302 308 315 323 332 341 351 363 375 385 397 407 421 436 449 460 470 481 494 508 523 538 550 559 570 584 598 616 636 653 669 683 696 706 714 718 722 727 732 737 743 748 751 751 749 741 731 719 705 688 669 651 634 618 600 582 567 557 558 564 566 561 557 551 542 529 518 510 504 499 494 493 490 482 474 465 453 446 441 436 432 428 424 418 409 401 389 377 365 347 330 313 299 291 286 282 278 275 269 263 258 261 270 277 283 287 286 281 272 268 277 287 293 299 305 310 315 317 315 308 300 292 283 277 272 268 265 263 259 256 256 257 258 259 258 254 248 241 234 226 221 217 209 202 193 186 179 173 167 160 154 146 139 133 126 120 117 114 106 100 97 99 103 110 121 134 148 162 173 180 186 189 191 193 196 198 198 200 206 213 220 228 236 242 247 251 249 241 228 214 200 183 166 153 140 126 113 102 91 81 72 65 59 48 37 35 41 53 63 71 81 85 87 90 92 93 94 98 102 102 98 90 81 74 65 56 47 40 40 44 47 48 47 45 41 36 32 26 19 16 14 14 18 22 25 27 27 27 28 28 28 27 28 30 30 26 23 17 12 8 5 3 2 1 4 7 8 7 9 11 13 14 14 12 11 11 13 16 19 21 22 24 25 27 30 33 35 37 40 42 43 44 44 44 46 50 54 57 61 67 72 77 84 92 99 105 109 108 106 103 99 93 88 85 81 77 73 69 67 65 62 60 58 54 51 49 46 44 42 41 39 39 39 40 42 45 47 48 49 49 51 53 53 53 53 53 51 50 48 46 44 43 41 39 37 33 31 33 35 35 34 33 29 23 15 9 9 12 14 16 14 10 7 11 22 33 37 39 43 45 39 34 32 31 31 31 29 29 28 26 25 25 25 25 28 31 29 25 23 21 19 18 16 15 13 12 9 6 3 1 0 3 8 8 5 8 13 17 20 22 24 24 24 23 23 23 23 23 23 25 27 27 27 27 29 29 30 32 32 33 34 35 36 37 38 40 41 43 46 48 49 50 50 51 51 50 49 49 50 52 54 56 58 61 63 63 63 62 61 61 61
351 352 349 340 328 308 287 274 280 294 302 301 294 286 280 279 278 271 273 290 309 312 305 293 282 271 262 256 254 256 252 242 231 222 212 199 184 172 166 163 165 169 171 173 175 175 176 179 181 183 185 188 191 192 195 199 204 208 213 215 220 227 234 240 244 244 244 245 245 247 253 260 265 269 274 279 282 288 293 299 306 316 325 332 342 351 360 369 377 387 399 411 424 437 446 455 466 481 496 510 525 539 551 563 573 587 608 630 648 665 682 697 706 713 716 721 725 730 735 740 745 748 751 752 745 732 719 704 684 665 646 630 612 595 577 560 547 545 549 553 552 549 541 528 517 508 498 490 485 484 484 483 479 473 465 454 447 442 438 434 430 426 421 415 405 392 377 364 348 331 317 305 296 288 281 275 270 264 256 250 253 260 265 268 270 271 269 261 259 266 273 280 290 299 306 313 315 313 308 300 293 285 276 268 261 256 252 247 242 242 243 244 246 245 243 240 235 232 228 224 222 217 210 202 193 186 180 174 167 159 151 143 136 130 125 120 116 110 104 99 95 96 102 114 127 142 155 166 174 180 185 187 188 190 192 194 196 203 209 213 220 228 234 240 244 243 237 227 215 201 186 172 159 145 132 119 107 96 87 76 67 59 47 37 34 41 52 61 70 78 81 82 85 87 86 89 94 96 95 89 81 74 68 60 53 46 39 34 35 37 41 42 41 38 36 32 27 22 17 14 11 12 18 21 22 22 22 23 23 21 20 19 17 15 10 6 2 1 0 0 0 0 0 0 0 0 1 3 6 8 10 10 9 9 11 13 16 18 20 20 21 23 26 29 32 34 36 37 38 39 40 41 42 45 48 51 55 60 64 68 74 82 89 98 106 109 108 106 103 99 93 87 83 81 78 73 70 68 64 62 60 57 53 49 47 45 42 41 39 39 39 39 39 41 44 46 46 48 50 50 51 53 53 53 52 51 49 46 45 43 41 40 38 36 32 30 30 30 30 29 25 20 16 15 11 8 9 10 10 8 7 10 20 34 42 46 45 44 41 38 36 33 31 29 28 28 28 26 25 25 25 25 25 27 34 35 30 28 26 23 20 18 16 15 13 12 10 8 4 0 0 2 2 3 8 14 18 22 26 28 28 27 27 27 28 28 26 26 28 29 28 29 29 29 31 32 33 34 35 35 36 37 38 39 41 42 44 47 49 50 52 54 55 55 54 52 51 51 53 55 57 60 62 64 65 66 66 65 63 63
342 339 336 328 316 297 278 266 269 280 290 290 282 271 266 265 268 267 277 295 309 305 293 280 269 259 251 244 243 249 244 231 218 208 198 185 172 164 161 162 170 179 185 186 185 181 179 180 182 184 187 190 192 197 201 208 213 219 224 228 234 241 249 255 258 258 257 256 254 253 255 262 269 275 280 285 290 295 300 307 316 328 337 345 354 363 371 378 384 394 404 413 424 432 439 448 461 477 494 507 520 536 550 563 575 589 607 625 643 662 679 695 706 714 716 720 724 728 733 738 741 745 748 748 744 733 719 703 683 663 642 625 608 590 572 555 541 534 534 538 539 536 527 515 507 496 483 475 470 471 474 475 474 471 465 456 450 445 440 436 432 427 422 416 407 396 382 367 351 336 324 316 308 299 290 283 274 267 259 251 246 247 250 251 252 255 257 252 249 254 261 269 279 289 298 308 312 312 308 303 296 288 278 269 260 252 246 240 233 229 229 229 228 228 228 226 223 223 220 219 219 218 213 205 200 194 188 182 173 165 156 146 140 134 127 122 117 113 106 100 95 92 95 104 116 131 147 159 166 172 178 182 186 188 188 188 190 196 204 208 213 220 227 233 236 237 231 223 214 202 187 174 161 148 135 121 108 96 87 77 67 59 48 37 33 36 44 54 63 70 73 77 79 79 79 82 88 89 85 78 71 66 60 53 47 43 37 32 30 31 33 34 35 35 34 30 27 23 20 15 10 9 11 15 18 19 18 19 19 15 10 6 2 1 0 0 0 0 0 0 0 0 0 0 0 0 0 0 1 3 4 4 5 8 11 13 16 16 18 20 21 23 26 29 31 33 34 35 35 36 37 38 39 42 45 48 51 56 60 67 73 79 86 96 103 107 107 104 100 94 88 83 82 81 78 73 69 67 63 61 59 56 52 48 45 43 40 38 38 38 39 39 39 41 43 44 46 48 49 50 51 52 52 52 51 50 49 47 44 41 40 39 37 35 32 31 29 26 24 22 20 20 20 22 20 13 8 7 7 9 15 23 32 40 46 49 48 44 39 41 41 36 31 28 26 25 25 25 25 25 25 25 25 28 35 39 37 33 30 26 22 19 17 15 14 13 12 12 8 4 1 0 0 3 10 17 21 24 27 30 31 31 29 30 31 30 29 29 30 30 31 31 31 31 33 33 34 35 36 37 38 38 39 41 43 44 45 47 49 50 53 55 57 59 58 57 58 59 58 57 59 62 65 67 68 68 69 68 66 66
339 330 325 317 308 291 273 261 261 270 277 277 268 259 257 262 267 271 284 299 301 294 283 268 258 251 242 235 235 238 234 221 207 196 185 173 164 159 159 162 174 190 200 203 201 197 192 191 191 192 193 197 203 210 216 221 224 229 235 243 249 255 263 269 272 272 271 271 269 265 261 265 274 282 289 295 302 309 314 323 334 344 353 362 371 379 388 396 403 410 419 428 436 443 450 459 473 490 504 515 528 544 560 575 589 602 614 626 642 659 676 690 702 711 715 720 723 727 730 735 738 740 743 744 740 732 718 701 681 661 640 621 603 586 568 549 534 522 517 518 520 519 513 504 495 482 470 460 456 458 463 467 468 467 464 458 453 447 443 439 434 428 423 417 409 398 384 372 361 348 337 330 324 315 306 296 286 277 267 257 247 241 240 241 242 245 246 243 240 246 252 258 267 279 291 300 308 310 309 305 300 293 285 277 268 260 251 243 232 222 218 216 213 210 211 212 211 210 210 209 208 209 206 203 201 198 193 187 179 170 161 151 143 136 129 123 119 114 107 102 97 92 90 95 106 121 136 148 155 160 167 174 181 185 185 183 182 188 196 202 207 213 220 225 226 226 224 219 210 201 188 175 161 148 135 122 108 94 85 76 67 60 51 41 34 34 40 46 54 61 67 71 72 69 68 73 76 77 74 68 61 55 50 45 42 39 36 32 28 27 28 29 30 29 26 24 23 20 18 14 11 7 7 12 15 15 14 14 12 7 2 0 0 0 0 0 0 0 0 0 0 0 0 0 0 0 0 0 0 0 0 1 4 8 11 13 13 15 17 20 21 23 26 28 30 31 32 32 33 34 34 35 37 39 42 44 48 54 60 66 71 76 84 92 98 103 105 102 95 88 83 79 79 80 76 72 68 65 63 60 57 55 52 49 46 42 40 38 38 38 38 38 39 41 41 43 45 47 48 50 50 51 51 51 51 49 47 45 42 39 38 37 35 33 31 30 28 26 24 23 24 27 29 31 29 24 18 16 19 24 30 35 40 45 48 50 49 45 41 43 45 39 33 29 27 25 25 25 25 25 25 25 25 27 34 37 38 37 34 31 26 22 18 16 15 14 14 14 12 9 4 1 0 3 12 20 24 27 29 31 32 33 33 35 35 34 34 34 32 32 32 33 35 35 35 36 36 36 37 38 39 41 42 43 46 47 47 47 48 51 54 57 61 63 62 61 62 63 62 61 62 65 68 70 70 71 73 71 69 69
337 323 313 306 298 284 269 257 254 261 265 262 255 252 262 274 281 284 290 296 292 283 271 258 248 241 231 226 224 226 223 212 198 185 172 164 159 157 159 162 180 201 212 217 217 213 207 205 204 204 207 211 217 224 231 234 237 243 249 257 263 269 277 283 286 287 286 286 285 278 271 269 277 287 295 307 316 323 331 338 347 356 367 378 387 397 406 415 422 429 438 446 452 459 468 480 493 505 516 527 542 559 577 593 606 616 625 633 646 662 677 689 698 707 713 719 722 726 729 732 733 735 738 739 737 729 715 697 679 658 637 618 598 581 563 543 527 513 503 496 499 502 500 492 483 471 459 448 443 446 450 457 461 462 460 456 453 449 445 441 437 430 424 418 412 404 393 383 375 365 355 345 337 329 321 311 298 286 274 264 254 244 236 235 235 237 239 235 234 241 246 251 257 267 279 291 300 306 308 306 300 294 288 281 275 268 260 250 239 226 216 209 203 199 198 199 198 198 199 200 200 201 198 194 193 192 190 186 179 173 166 156 147 139 132 125 120 113 108 104 100 94 88 89 97 110 124 135 140 146 153 163 174 180 179 175 173 179 187 194 200 206 212 215 216 217 218 215 208 199 188 175 162 149 137 124 109 93 82 74 66 60 53 43 32 30 34 40 46 54 60 63 62 59 59 62 63 63 61 56 50 45 41 38 36 35 34 32 28 24 22 23 23 21 16 13 13 15 13 11 9 6 5 9 12 11 10 8 3 0 0 0 0 0 0 0 0 0 0 0 0 0 0 0 0 0 0 0 0 0 0 0 3 7 9 11 12 14 17 19 21 23 24 26 28 29 30 30 31 32 32 33 35 37 39 43 47 53 58 62 66 73 82 90 96 101 103 101 93 84 78 73 72 75 74 70 66 63 60 57 54 52 50 48 45 42 40 38 37 38 38 38 40 40 41 43 43 46 48 49 50 51 51 51 49 48 46 43 40 38 37 36 34 32 30 29 29 27 25 26 28 32 34 36 37 37 34 31 32 36 40 43 45 47 49 49 49 45 42 40 42 42 39 34 29 26 25 25 25 25 25 25 25 27 31 35 39 42 41 37 30 24 20 18 16 14 14 14 14 12 9 4 0 4 14 22 25 28 30 32 34 36 37 38 39 38 38 38 36 35 35 37 38 39 39 38 37 38 39 40 41 43 43 46 49 50 49 49 50 53 56 61 66 68 68 67 66 68 67 67 67 69 72 74 74 76 78 76 73 74
338 323 309 295 285 273 260 249 247 253 255 251 246 253 272 289 297 296 293 289 282 272 261 249 239 230 221 213 211 212 210 204 191 178 165 158 154 156 159 168 190 211 223 229 232 231 226 221 217 217 222 227 232 241 247 249 253 260 265 271 278 284 292 299 303 304 304 304 300 289 277 271 278 291 304 316 326 335 346 353 360 368 381 393 402 411 421 430 440 449 458 466 472 479 489 500 509 518 526 540 558 576 594 609 621 630 638 646 658 671 684 696 703 711 714 718 722 725 729 730 729 729 730 730 728 721 708 692 674 655 633 613 593 576 558 539 525 512 498 487 483 484 485 482 474 464 453 441 435 438 444 448 450 450 451 451 452 450 446 443 437 429 423 418 415 411 404 396 389 381 369 359 349 341 330 321 310 297 284 271 259 248 239 233 229 229 229 228 226 232 241 246 250 257 268 279 291 299 304 304 300 294 287 281 276 271 266 257 245 233 223 213 203 196 192 190 186 183 184 187 190 189 186 183 181 180 180 179 177 173 168 162 154 146 136 127 120 115 110 106 102 96 89 87 91 100 111 121 128 133 140 149 161 169 170 166 162 169 179 188 194 199 203 207 209 210 210 210 206 199 188 175 161 148 135 122 107 94 81 69 62 55 49 41 32 27 30 34 40 46 50 50 50 49 49 50 50 49 48 44 39 37 35 32 29 29 29 29 27 22 19 17 15 12 10 7 7 10 9 7 5 3 1 4 8 6 3 1 0 0 0 0 0 0 0 0 0 0 0 0 0 0 0 0 0 0 0 0 0 0 0 0 1 3 7 10 11 13 15 18 20 21 23 25 26 27 27 28 29 30 31 31 33 35 38 42 47 51 55 58 64 72 82 88 94 99 100 96 88 80 73 69 69 71 71 69 65 60 57 53 50 49 48 47 45 42 40 38 36 36 37 37 39 40 40 42 44 44 46 48 49 50 50 49 48 46 44 41 39 37 35 35 33 31 30 30 29 28 28 28 30 34 36 38 40 42 41 40 40 43 46 48 49 50 51 51 49 46 43 42 45 47 49 43 32 26 25 25 25 25 25 25 25 26 29 34 42 47 46 43 36 28 23 19 16 15 15 14 14 13 11 8 2 5 17 24 26 28 30 32 35 37 39 41 42 42 42 40 39 40 40 40 41 43 42 41 40 40 40 42 45 47 47 49 53 55 54 54 55 58 61 66 71 72 71 70 70 71 73 74 75 77 78 79 78 80 82 80 78 79
337 321 304 289 275 262 251 241 239 244 244 240 242 258 280 296 303 300 291 282 273 263 253 241 230 220 210 201 197 198 197 193 182 167 158 154 154 156 165 182 202 219 231 238 245 245 241 238 234 234 237 243 249 257 264 267 271 277 282 287 294 302 309 317 320 319 317 318 313 301 288 279 282 294 307 321 335 348 359 366 373 381 394 403 412 421 431 442 455 466 475 483 490 498 506 514 520 527 538 555 575 593 609 624 635 643 651 659 672 685 698 708 714 718 719 723 725 727 729 730 728 726 724 722 718 711 700 686 669 649 627 607 589 573 556 541 530 518 503 487 474 468 470 473 468 458 447 436 429 429 435 439 439 440 444 446 448 447 444 440 434 427 423 419 416 414 411 407 400 391 381 371 361 353 342 330 319 307 293 279 268 257 245 236 227 221 220 220 219 222 229 235 239 248 259 270 281 291 298 301 297 290 284 279 274 270 266 260 252 240 230 220 211 202 194 187 179 173 171 173 175 173 169 168 168 167 166 166 166 166 164 162 158 150 140 132 124 118 111 106 101 96 89 84 85 91 100 109 116 122 129 138 149 156 156 152 149 155 167 179 187 192 195 199 202 203 203 203 201 196 187 175 161 148 134 121 107 94 80 67 56 48 42 36 30 27 28 31 35 40 43 44 43 42 42 42 41 39 37 35 31 28 28 26 22 20 21 23 21 18 15 12 10 9 7 4 5 5 4 3 2 1 0 1 1 0 0 0 0 0 0 0 0 0 0 0 0 0 0 0 0 0 0 0 0 0 0 0 0 0 0 0 0 1 4 9 11 13 14 16 18 20 21 23 24 24 25 26 27 27 29 31 33 35 38 40 44 49 53 57 63 72 79 85 90 94 95 91 84 77 70 66 66 69 70 68 62 57 55 52 48 46 45 44 43 42 40 37 36 36 36 38 39 39 39 41 42 44 45 47 49 49 49 48 46 44 41 39 37 35 35 34 32 32 31 31 31 30 29 30 32 34 37 39 41 42 43 43 44 46 48 49 50 50 51 51 50 47 44 43 46 50 52 48 38 28 25 25 25 25 25 25 25 27 31 39 46 49 49 47 42 34 26 21 18 16 15 14 14 13 11 7 1 5 17 23 25 27 29 32 36 38 40 42 44 45 44 44 44 46 46 46 47 47 47 46 46 46 46 46 49 53 52 53 57 60 61 61 62 65 68 72 75 76 76 76 76 77 77 78 80 82 84 85 83 84 86 84 82 83
338 323 308 292 274 259 247 237 231 233 233 234 246 263 284 299 304 300 289 275 265 254 245 234 222 211 202 193 186 184 184 181 172 161 154 152 153 162 178 196 210 224 234 242 250 253 254 254 252 253 255 261 268 274 280 285 287 290 296 302 311 320 328 335 336 331 326 326 323 313 300 290 289 300 314 330 346 359 367 374 383 393 403 412 421 430 442 455 469 483 492 501 509 516 522 525 529 536 551 571 590 607 624 638 647 656 665 672 685 699 712 721 726 728 729 734 734 733 732 730 728 726 721 716 710 702 692 680 665 645 624 605 589 575 560 547 538 527 511 492 475 460 455 459 459 453 443 430 420 417 425 431 433 436 438 440 442 442 439 435 430 425 421 418 416 414 412 410 407 399 390 381 373 363 353 341 329 315 301 288 276 265 254 243 231 223 218 215 213 213 216 223 229 240 252 263 275 286 294 296 293 286 279 273 270 266 263 260 256 246 237 228 219 210 202 192 183 175 169 165 163 161 157 155 153 153 152 153 154 154 153 153 152 148 142 134 125 118 111 104 98 95 90 84 81 83 89 98 106 113 120 128 136 143 142 136 136 145 157 169 179 185 188 192 195 197 197 197 197 194 186 173 159 147 135 120 107 94 80 67 54 45 38 32 28 26 26 29 33 36 40 40 39 36 36 35 33 31 29 25 23 21 21 19 16 14 15 15 15 13 12 10 8 6 5 4 3 2 1 0 0 0 0 0 0 0 0 0 0 0 0 0 0 0 0 0 0 0 0 0 0 0 0 0 0 0 0 0 0 0 0 0 0 0 2 6 9 11 13 15 16 18 19 21 21 22 23 24 25 27 30 32 35 37 38 40 44 48 53 57 64 70 75 80 85 89 90 85 77 70 64 61 64 68 70 68 63 58 54 51 49 47 43 41 41 40 38 36 35 35 35 37 38 39 39 39 41 42 44 47 49 49 48 46 44 41 39 37 37 35 34 34 34 34 33 32 32 32 30 31 33 34 37 39 41 42 44 44 46 48 49 50 50 50 52 52 51 48 46 45 46 50 51 50 45 35 28 26 27 27 28 27 27 29 35 45 50 49 50 50 44 35 29 23 19 17 15 14 14 14 12 7 1 5 16 22 25 28 30 33 36 38 41 43 46 48 49 48 48 50 51 51 51 51 51 51 51 52 54 56 58 60 59 59 62 65 67 68 70 74 76 78 80 81 81 81 83 85 86 87 87 88 91 92 89 89 92 90 88 88
340 326 312 296 279 262 248 236 227 227 229 238 255 272 286 298 301 294 282 269 258 249 241 233 222 214 203 193 183 175 170 169 163 154 149 150 159 174 192 206 215 223 230 240 248 253 259 262 266 268 270 277 284 288 292 296 298 300 305 315 327 337 347 353 348 342 334 333 331 324 313 302 296 303 321 340 356 366 374 383 394 403 412 421 429 441 455 470 486 499 509 518 526 531 536 538 541 551 570 587 603 617 633 647 658 668 676 684 697 710 722 730 735 738 738 741 740 738 736 732 729 725 720 714 707 699 689 676 662 643 625 610 597 584 570 558 545 533 516 494 475 458 448 446 447 445 440 429 415 408 412 422 428 432 434 435 435 435 432 428 425 422 419 418 416 414 412 411 409 406 398 390 381 371 362 352 339 322 305 292 278 267 259 250 239 230 223 218 213 208 207 213 221 233 246 258 270 282 290 292 288 282 273 265 261 259 259 258 254 250 243 235 225 217 210 202 192 183 174 168 163 159 155 153 150 146 143 142 143 142 139 140 140 139 136 128 121 114 107 101 96 92 89 84 80 78 81 87 95 102 109 116 123 129 128 124 125 136 147 159 169 177 180 184 188 189 190 191 193 190 183 171 158 147 135 121 108 94 80 67 54 45 38 31 27 24 23 26 28 31 35 36 35 32 30 28 26 24 21 18 16 16 18 15 11 9 9 9 10 10 9 9 7 5 3 2 0 0 0 0 0 0 0 0 0 0 0 0 0 0 0 0 0 0 0 0 0 0 0 0 0 0 0 0 0 0 0 0 0 0 0 0 0 0 1 3 7 9 11 13 15 16 18 19 19 20 20 21 25 29 31 35 38 39 39 40 43 47 50 54 59 66 69 73 79 85 85 81 74 65 59 59 64 69 71 69 64 60 56 53 50 47 44 40 38 38 37 35 35 34 34 35 36 37 38 38 39 39 41 45 48 48 47 45 43 40 38 37 36 36 35 35 36 36 36 36 34 32 31 31 33 34 37 39 41 42 43 43 45 47 48 49 50 50 51 52 52 50 46 45 47 49 50 49 48 44 35 29 29 31 33 31 30 32 39 47 50 51 52 52 45 35 29 25 21 17 14 14 14 13 10 4 0 6 15 21 25 28 31 34 37 39 42 45 48 51 53 54 55 55 56 56 56 56 56 56 56 57 60 62 64 65 65 66 68 70 71 74 78 80 81 83 84 86 86 86 88 92 94 94 94 96 98 99 97 97 99 98 97 96
344 327 312 297 280 264 249 235 225 223 232 248 265 279 289 296 298 292 280 266 257 248 238 233 226 220 209 197 187 177 168 161 155 150 148 150 159 178 194 205 212 217 224 231 238 245 255 263 269 274 279 284 290 293 296 300 305 309 315 326 338 351 358 360 356 347 342 341 341 337 328 317 307 308 325 346 362 373 383 394 403 412 421 431 442 455 471 488 503 514 525 535 542 546 551 555 562 574 588 601 613 625 639 653 665 674 681 688 700 713 726 735 741 743 742 745 743 742 739 735 730 725 720 714 706 697 688 675 661 644 629 617 606 594 579 563 546 532 514 492 472 457 445 436 432 429 430 424 412 401 401 410 420 426 427 426 427 427 426 423 421 418 417 416 415 414 412 411 411 407 402 395 385 376 367 357 343 326 310 295 280 269 261 253 245 237 233 227 218 210 205 206 214 225 236 249 262 273 283 287 285 278 268 260 254 252 253 253 253 250 246 240 233 225 218 211 202 192 184 178 172 168 163 159 156 151 144 138 134 130 127 126 126 126 125 121 114 107 100 96 92 89 87 83 80 77 77 80 84 89 96 102 110 116 116 115 117 125 136 147 158 165 167 172 176 179 183 185 186 184 177 166 154 144 134 122 111 97 82 68 58 49 40 33 28 24 21 21 24 27 30 33 32 28 25 22 20 18 16 13 12 12 12 10 8 6 6 6 7 8 8 7 5 3 2 1 0 0 0 0 0 0 0 0 0 0 0 0 0 0 0 0 0 0 0 0 0 0 0 0 0 0 0 0 0 0 0 0 0 0 0 0 0 0 0 1 5 7 9 11 13 15 16 17 18 18 19 21 26 30 32 36 38 39 38 39 41 44 47 50 54 59 64 69 76 81 81 76 69 61 56 58 64 71 75 74 69 65 61 57 53 50 46 42 39 38 37 35 34 34 34 34 36 36 36 38 38 38 40 44 46 46 45 44 42 40 38 37 36 36 37 37 38 38 38 38 37 34 32 32 32 34 36 38 40 40 42 44 45 46 47 48 49 50 50 51 52 50 48 46 46 48 49 49 51 50 45 36 34 39 43 43 41 40 43 47 50 52 52 51 45 36 31 26 21 17 14 13 13 11 7 2 4 12 19 23 26 29 32 35 37 40 43 47 52 56 58 60 60 61 61 62 61 61 61 61 61 61 64 67 68 69 70 71 72 73 74 77 81 84 86 88 90 91 91 91 94 99 101 103 103 104 105 105 104 105 105 105 103 101
345 327 311 295 278 262 245 230 220 223 238 256 269 282 291 295 295 291 280 268 260 249 238 232 227 222 213 201 192 182 171 162 153 148 147 149 156 173 187 196 204 210 216 222 226 234 245 257 268 276 281 286 290 294 298 302 308 313 321 333 347 357 361 361 358 354 354 355 357 354 347 336 326 321 329 345 366 380 393 403 412 421 430 442 456 471 487 503 517 529 540 549 557 563 567 573 581 590 599 609 619 628 640 652 664 673 681 689 698 710 723 735 743 747 747 749 748 747 744 739 733 727 721 715 706 695 687 677 665 652 641 628 614 600 584 564 545 527 508 487 471 458 447 436 426 419 418 413 401 392 389 393 403 410 411 412 415 418 418 414 412 411 411 411 411 410 410 410 409 407 400 393 385 376 368 358 345 329 314 300 284 273 264 256 247 242 240 235 226 216 205 200 206 216 228 241 254 265 274 281 281 275 266 258 250 244 243 246 249 249 247 244 238 231 225 220 213 203 195 189 184 179 174 170 166 160 151 142 135 130 124 119 117 116 114 112 108 102 97 93 90 88 85 82 80 77 75 74 75 76 80 87 96 103 103 103 107 115 124 135 144 152 154 158 163 167 172 175 179 178 172 162 150 140 132 125 116 102 85 72 63 53 45 37 32 26 21 19 20 22 25 29 29 26 24 20 17 15 12 10 9 8 8 7 6 5 4 4 6 6 6 5 4 2 0 0 0 0 0 0 0 0 0 0 0 0 0 0 0 0 0 0 0 0 0 0 0 0 0 0 0 0 0 0 0 0 0 0 0 0 0 0 0 0 0 0 2 5 8 10 12 14 15 16 16 15 16 19 23 28 32 34 36 37 37 37 39 41 44 47 50 55 61 67 72 78 78 72 66 59 55 58 66 74 79 78 74 70 65 60 56 52 47 43 40 38 37 35 35 33 33 34 35 36 36 38 38 38 39 42 44 44 42 41 40 39 39 37 37 37 38 38 39 39 39 39 39 37 34 32 32 34 36 37 39 40 40 42 44 44 45 47 48 49 50 50 51 50 48 47 47 47 49 50 51 51 50 46 42 44 48 51 49 47 48 50 52 52 52 50 44 36 32 27 22 17 15 14 12 7 1 2 8 15 20 23 27 31 34 36 38 41 44 49 56 60 63 65 65 65 66 67 67 67 68 68 68 69 71 72 73 74 75 75 76 78 78 81 85 88 93 95 97 97 97 98 104 107 109 113 114 113 112 112 112 112 112 112 109 107
346 327 309 291 274 255 237 221 216 226 242 256 268 278 286 292 292 289 279 266 255 243 235 230 224 218 211 202 195 183 173 163 152 146 145 148 154 166 178 185 194 202 208 211 218 225 234 248 261 272 281 285 290 294 299 304 310 314 322 335 348 356 359 363 362 361 366 370 373 373 369 360 351 342 343 355 373 388 401 413 422 432 444 459 473 488 501 514 530 544 553 561 568 571 576 582 589 596 605 614 622 631 640 650 659 670 681 688 695 704 716 729 741 748 751 753 752 751 748 741 734 728 723 717 706 696 690 682 671 660 651 639 622 605 587 565 544 524 504 487 475 465 453 440 428 417 409 402 396 390 384 378 381 387 391 394 402 408 407 402 399 400 400 400 401 405 406 407 407 403 396 388 379 371 363 355 342 329 316 303 287 274 265 259 251 247 242 238 230 218 205 198 201 210 220 231 243 255 265 274 276 270 262 255 247 239 236 238 242 246 249 248 244 240 234 228 222 213 207 201 194 190 185 180 175 165 154 146 142 137 132 124 117 112 109 107 104 101 97 94 93 90 86 84 80 77 75 73 71 68 68 73 81 88 89 91 97 105 113 121 129 137 141 145 151 155 159 163 168 169 164 157 148 139 131 124 117 104 89 76 65 56 51 44 35 28 21 18 17 18 22 25 26 24 22 20 17 14 11 8 8 7 6 6 5 4 4 3 3 4 4 3 2 0 0 0 0 0 0 0 0 0 0 0 0 0 0 0 0 0 0 0 0 0 0 0 0 0 0 0 0 0 0 0 0 0 0 0 0 0 0 0 0 0 0 0 1 3 6 9 11 13 14 14 14 13 14 17 21 25 28 31 33 34 34 34 37 39 41 44 49 53 58 62 67 72 72 69 62 55 52 56 64 72 78 79 77 73 68 62 57 53 49 45 41 39 37 35 33 33 33 35 37 37 37 38 38 38 38 40 41 41 40 39 39 38 38 38 38 38 38 40 40 40 40 40 40 40 38 36 35 35 35 37 38 39 40 41 42 43 44 45 46 46 48 49 49 50 50 48 48 48 48 50 51 52 51 49 48 48 51 53 52 51 51 51 53 53 52 50 47 40 34 28 23 19 16 14 11 4 0 3 10 16 18 21 26 32 36 39 41 43 45 50 55 60 64 68 70 70 71 73 73 74 76 77 79 79 79 79 79 79 79 79 81 84 87 89 90 95 101 103 104 103 103 107 114 119 121 122 122 120 120 120 120 120 120 120 118 115
343 324 304 286 267 247 227 214 215 226 238 248 258 269 281 287 289 283 271 259 248 239 233 229 220 212 205 198 191 180 169 158 147 144 145 148 154 162 171 178 185 194 201 207 215 225 233 245 257 267 277 284 290 295 299 305 310 314 322 334 343 349 356 365 370 375 382 388 392 393 391 384 374 365 361 370 383 398 412 426 438 450 463 476 488 500 513 529 543 553 560 566 570 573 577 583 590 596 605 612 620 630 638 646 657 669 681 688 696 702 710 720 735 748 753 756 756 755 751 747 740 732 727 718 706 698 693 685 675 665 655 641 624 606 587 566 546 527 509 493 480 467 454 443 432 422 411 406 403 400 392 379 367 364 369 374 382 391 391 385 380 382 384 383 389 395 399 402 402 399 391 382 374 366 359 352 342 330 318 306 292 279 271 264 258 250 243 236 227 218 205 198 195 200 211 223 234 245 256 266 270 267 257 249 241 235 229 230 235 243 249 251 250 249 246 239 231 223 219 213 206 201 196 191 182 168 157 153 153 151 145 136 126 117 112 110 109 105 100 97 98 95 92 87 82 78 76 73 71 69 66 66 69 74 76 79 86 95 103 108 113 122 127 132 137 141 144 147 151 154 155 151 144 137 130 122 114 105 91 77 66 59 53 45 35 28 22 19 17 16 18 22 23 23 21 18 16 13 11 8 8 7 6 5 5 4 3 3 2 2 2 2 1 1 0 0 0 0 0 0 0 0 0 0 0 0 0 0 0 0 0 0 0 0 0 0 0 0 0 0 0 0 0 0 0 0 0 0 0 0 0 0 0 0 0 0 0 1 4 8 10 11 12 13 13 11 12 14 18 22 24 26 29 31 32 34 35 37 39 41 45 49 53 58 62 66 67 64 58 52 50 52 60 70 76 77 76 72 67 61 56 53 49 45 42 39 37 36 34 33 33 35 38 38 38 38 38 38 38 40 40 39 39 38 38 38 38 38 38 38 40 40 40 40 41 41 41 40 40 40 38 37 37 37 37 37 39 40 41 42 43 44 45 45 47 48 48 50 50 49 49 49 49 50 51 52 52 50 50 50 52 53 53 53 53 53 53 53 53 52 49 43 37 32 26 21 17 14 11 4 0 2 9 13 16 20 27 34 38 41 44 46 47 50 54 59 64 70 73 75 77 77 77 79 81 85 86 86 86 86 86 86 86 87 89 91 93 96 99 105 111 114 114 113 113 117 123 128 131 133 133 133 133 133 133 133 133 131 126 124
339 320 300 283 264 243 222 209 210 220 228 238 247 258 271 280 283 276 263 251 240 235 231 226 218 207 198 190 181 171 162 153 145 142 145 150 154 160 167 173 181 190 197 204 214 225 234 245 255 263 274 282 289 296 302 307 310 315 322 332 339 346 356 369 380 389 399 408 413 415 412 408 398 389 382 385 396 410 426 442 457 469 479 489 499 513 528 543 553 560 563 566 569 572 577 583 589 596 603 611 619 629 636 644 655 667 678 688 697 702 708 718 733 748 754 758 759 757 755 750 744 737 730 719 708 701 695 687 678 668 656 641 625 605 586 568 550 532 515 497 482 469 458 448 436 425 417 419 419 413 405 389 369 354 350 352 360 368 369 365 360 364 367 367 375 383 389 393 393 389 381 374 369 362 355 349 341 332 325 315 302 290 279 271 263 254 245 236 228 219 210 202 194 192 199 212 226 238 251 262 266 264 255 244 235 229 224 224 229 238 248 252 253 253 252 248 242 236 230 223 216 211 206 198 185 171 164 165 164 161 155 147 137 127 119 116 116 116 112 107 106 104 99 92 86 82 77 75 73 71 69 66 64 63 64 68 75 84 91 95 99 107 113 118 123 125 127 130 134 140 143 142 138 131 125 120 114 105 91 78 69 63 55 46 38 29 24 21 17 16 16 18 20 20 19 17 15 13 11 8 8 7 6 5 4 4 3 3 2 2 1 1 0 0 0 0 0 0 0 0 0 0 0 0 0 0 0 0 0 0 0 0 0 0 0 0 0 0 0 0 0 0 0 0 0 0 0 0 0 0 0 0 0 0 0 0 0 1 3 6 8 10 11 12 12 10 10 13 15 18 20 21 24 27 29 32 34 35 37 39 41 44 49 54 58 62 62 59 53 48 47 49 58 69 74 75 74 71 65 59 55 52 48 46 43 41 40 38 34 32 34 38 39 39 39 39 39 39 39 39 39 39 38 38 38 38 38 38 38 38 40 40 40 41 41 41 41 41 41 40 40 39 38 37 37 37 39 40 41 42 42 44 46 46 47 47 47 49 50 50 49 49 49 49 51 52 51 51 51 51 53 54 54 54 54 53 54 54 53 53 52 48 43 36 30 25 20 16 8 1 0 1 6 10 13 18 26 34 39 43 45 48 50 53 57 60 65 71 76 79 81 81 84 86 88 93 97 96 96 96 96 96 96 97 97 97 100 104 108 115 122 125 127 126 124 126 130 135 139 144 147 147 146 147 147 147 146 141 137 136
330 313 296 280 264 244 225 213 206 207 214 225 236 248 259 272 279 273 260 247 236 231 226 219 210 199 191 182 171 159 151 146 140 142 145 151 156 161 166 171 179 185 191 201 213 221 232 248 260 269 277 286 295 304 311 315 317 320 327 333 340 349 363 378 392 404 415 424 431 434 435 431 424 414 407 405 411 425 441 458 470 479 488 497 510 527 542 551 558 561 563 563 565 569 575 581 587 593 602 609 617 626 634 642 652 662 674 686 695 701 708 719 734 748 755 759 760 759 757 753 747 739 731 720 710 703 696 692 682 669 656 642 625 606 585 568 553 538 522 504 489 474 462 451 439 428 425 429 430 425 415 399 378 359 345 338 339 343 346 346 346 350 352 354 362 371 378 381 380 375 367 361 360 356 350 344 340 335 330 322 311 299 286 278 270 261 252 244 235 226 215 206 197 188 190 200 216 232 246 255 260 258 249 239 229 222 219 221 226 236 246 250 252 253 253 253 251 247 241 233 226 220 213 201 185 174 175 178 175 170 164 156 147 137 128 123 123 123 122 118 115 110 104 97 90 84 79 77 74 73 71 67 64 61 59 58 62 69 76 81 87 93 98 103 107 109 111 114 119 125 130 130 129 125 121 116 110 103 91 79 71 64 58 50 41 33 26 22 19 17 14 14 15 15 15 15 15 13 11 9 8 6 4 4 4 3 2 2 1 1 0 0 0 0 0 0 0 0 0 0 0 0 0 0 0 0 0 0 0 0 0 0 0 0 0 0 0 0 0 0 0 0 0 0 0 0 0 0 0 0 0 0 0 0 0 0 0 0 1 3 6 9 10 10 10 10 9 10 13 15 17 18 20 23 26 29 32 34 35 37 39 40 44 49 54 56 56 52 48 45 44 48 57 65 72 73 73 70 65 61 57 53 49 45 43 41 40 38 35 32 34 39 41 41 40 40 40 40 40 39 39 39 38 38 38 37 37 37 37 37 39 40 40 40 41 41 41 42 42 41 41 41 39 39 39 39 39 40 42 42 44 46 48 49 49 49 49 49 50 50 50 50 50 50 50 50 52 52 52 53 53 53 55 55 54 54 53 53 53 54 54 52 49 42 36 30 25 20 12 3 0 0 2 4 9 15 22 29 35 40 45 49 53 57 60 65 70 74 78 82 84 87 90 93 95 102 109 110 110 110 110 108 106 104 104 106 109 114 120 127 132 135 138 136 131 133 138 144 151 156 159 158 158 159 160 160 159 154 151 150
318 304 290 275 261 245 228 216 208 202 202 213 229 242 252 259 265 264 256 245 234 225 215 207 199 192 185 175 161 149 142 142 139 142 145 153 160 166 171 174 182 188 195 203 214 225 238 253 267 277 284 293 303 316 324 328 326 325 330 335 343 355 373 391 405 417 428 438 446 451 455 455 451 443 435 431 434 442 454 465 475 485 493 504 519 531 540 547 553 556 556 557 561 565 569 577 584 592 603 610 616 625 633 639 648 660 671 683 692 699 707 719 733 747 754 759 760 760 758 755 750 743 732 721 713 705 699 693 682 668 653 638 621 604 585 569 555 541 526 508 493 481 468 455 444 434 432 436 436 431 421 405 387 367 350 337 328 324 324 327 331 336 337 339 348 357 362 364 363 357 349 344 344 342 338 336 334 331 328 323 315 305 293 284 275 267 260 253 244 235 225 214 200 188 186 194 206 222 237 249 255 252 245 234 223 215 215 220 227 236 243 247 248 250 252 255 257 254 248 242 233 226 216 202 188 184 190 191 186 179 171 164 154 144 135 132 132 132 130 126 120 114 107 99 92 87 83 79 77 74 72 69 66 63 60 58 57 59 63 69 74 78 82 88 91 94 96 99 106 112 117 120 121 117 114 111 106 100 90 79 71 65 59 51 41 33 28 23 21 19 15 13 12 12 11 12 13 13 11 9 8 6 4 4 3 2 2 2 1 0 0 0 0 0 0 0 0 0 0 0 0 0 0 0 0 0 0 0 0 0 0 0 0 0 0 0 0 0 0 0 0 0 0 0 0 0 0 0 0 0 0 0 0 0 0 0 0 0 0 0 2 6 9 10 9 8 7 8 11 13 15 17 18 21 24 27 30 32 33 35 36 39 41 44 47 48 48 46 44 42 43 47 54 62 69 72 72 70 66 61 57 54 48 44 41 40 38 36 32 31 34 39 42 42 42 40 40 40 40 40 39 39 38 38 38 37 37 37 37 38 38 38 40 40 41 41 41 41 42 42 42 41 41 40 40 40 40 42 42 44 46 47 49 50 50 49 49 49 49 49 50 49 49 50 50 50 50 52 52 53 53 53 53 55 55 54 53 53 53 53 53 52 49 44 38 33 28 23 17 11 4 1 0 0 2 8 14 22 31 38 44 50 56 61 65 71 77 81 84 86 87 90 96 100 103 110 119 123 124 123 119 115 113 113 113 115 121 125 131 137 142 144 145 144 143 143 147 153 160 165 167 167 167 170 173 173 171 168 164 163
305 293 282 270 257 243 229 218 209 200 195 205 225 238 245 249 251 252 248 239 226 215 205 196 186 182 178 168 152 141 138 139 139 142 145 155 166 174 178 183 188 196 203 210 219 230 244 256 269 280 286 292 303 318 328 332 330 329 331 338 349 365 385 404 417 427 438 449 458 463 468 474 472 465 460 457 458 461 468 474 478 485 493 506 518 526 532 538 544 549 551 553 558 564 569 573 582 591 603 610 615 623 629 637 645 656 666 677 688 697 706 717 728 743 751 758 760 760 759 756 753 746 733 723 716 708 700 692 680 664 647 630 613 598 583 568 555 542 527 509 495 485 470 455 445 438 438 441 440 435 426 412 393 376 360 346 331 320 314 312 315 320 321 325 334 341 345 346 345 340 331 325 323 322 321 322 322 320 317 314 310 304 295 287 280 273 267 260 253 244 235 223 208 192 182 184 196 211 225 237 243 243 237 229 218 210 211 220 227 233 238 241 242 244 248 255 261 260 256 250 241 231 217 202 194 196 201 201 196 188 180 171 162 153 146 144 143 141 137 132 126 120 112 104 97 91 87 83 78 76 74 71 68 65 63 61 57 54 55 58 62 64 68 72 74 78 84 88 94 99 106 112 112 108 106 104 100 94 87 79 72 65 59 51 41 33 28 25 23 22 19 15 11 9 9 9 11 11 10 8 8 6 5 4 3 2 1 1 0 0 0 0 0 0 0 0 0 0 0 0 0 0 0 0 0 0 0 0 0 0 0 0 0 0 0 0 0 0 0 0 0 0 0 0 0 0 0 0 0 0 0 0 0 0 0 0 0 0 0 0 0 3 6 7 7 6 6 8 10 12 14 16 17 19 22 25 27 29 31 32 33 35 37 38 40 40 40 40 40 40 42 47 53 61 67 70 71 70 67 63 59 54 48 42 39 37 35 33 30 30 34 39 42 43 42 42 41 41 40 40 40 38 38 38 38 37 37 36 37 37 38 38 38 40 40 41 41 41 41 42 42 42 42 42 41 41 41 42 44 46 46 48 50 50 50 50 50 49 49 49 49 49 49 49 50 50 50 52 52 53 53 53 54 54 55 54 53 53 53 53 53 51 49 45 40 35 30 26 22 18 14 9 6 4 0 2 8 20 31 39 46 54 60 65 70 76 82 86 91 92 92 96 104 107 111 120 126 132 136 136 131 125 123 123 125 127 130 134 139 146 152 156 157 156 156 156 158 163 170 176 177 178 180 182 183 181 179 178 178 177
292 281 273 262 248 236 224 214 204 195 192 203 221 234 238 240 240 241 238 229 216 206 196 185 175 170 168 161 148 138 136 137 139 142 147 155 168 180 186 191 196 204 213 220 228 239 251 261 269 277 283 290 300 310 320 328 328 327 331 343 357 374 396 414 425 435 447 456 463 471 480 487 487 482 478 476 477 478 481 486 485 488 495 504 513 523 532 538 544 548 553 557 562 568 572 576 584 593 603 610 615 622 629 634 640 649 659 668 681 692 700 711 724 739 748 755 759 758 757 755 752 745 733 724 718 709 699 688 674 659 641 623 607 591 577 565 552 539 525 508 493 481 468 453 445 443 444 445 442 435 428 416 402 384 368 356 340 324 311 301 301 304 305 310 319 326 329 329 329 326 315 307 303 300 302 305 307 308 304 300 299 297 292 286 282 277 273 267 260 253 244 231 216 201 186 179 187 201 213 224 230 230 228 223 217 207 206 216 225 228 229 229 230 234 244 256 264 266 263 257 248 238 223 207 200 205 210 208 203 195 185 177 170 162 156 153 151 149 144 139 133 125 116 110 104 97 93 87 83 80 77 74 71 68 65 62 58 54 53 52 50 50 55 60 63 67 71 76 80 86 94 99 100 99 98 95 91 87 83 78 71 65 58 51 41 33 29 28 27 25 22 18 13 10 8 8 9 9 9 9 7 5 4 3 2 1 0 0 0 0 0 0 0 0 0 0 0 0 0 0 0 0 0 0 0 0 0 0 0 0 0 0 0 0 0 0 0 0 0 0 0 0 0 0 0 0 0 0 0 0 0 0 0 0 0 0 0 0 0 0 0 0 2 3 4 4 6 9 11 12 14 16 18 19 21 23 25 27 28 29 30 31 33 34 35 35 35 35 37 40 42 47 54 60 66 69 69 68 66 63 59 54 47 41 37 35 33 31 28 29 34 38 41 42 43 43 42 42 42 40 40 40 39 39 38 36 36 36 36 36 37 37 37 39 40 40 41 41 41 42 42 43 43 43 43 43 43 45 46 47 47 48 49 50 50 49 49 49 49 49 49 49 49 49 49 49 51 51 51 53 53 53 54 54 54 54 52 52 52 52 52 52 50 48 44 39 33 28 24 22 20 17 14 9 2 0 6 20 32 42 49 56 63 69 74 79 85 92 97 99 99 103 109 114 120 128 134 139 143 144 142 136 131 130 133 136 139 144 149 156 162 167 170 170 169 169 170 174 181 187 190 191 192 191 190 191 191 191 190 187
279 269 262 253 242 229 217 207 199 192 190 202 217 227 229 230 232 231 228 221 209 199 190 179 166 159 156 152 143 136 135 137 140 143 150 159 170 182 191 197 203 211 218 225 235 246 255 263 270 276 282 289 296 303 310 316 317 322 332 346 361 380 402 419 430 441 453 461 468 478 488 497 498 495 491 488 491 492 492 492 494 499 505 513 521 531 539 546 550 554 559 563 568 572 576 580 588 597 603 609 616 622 629 633 639 646 654 664 674 685 694 705 720 734 743 751 756 756 755 752 747 740 731 722 713 702 694 685 671 654 636 617 599 582 570 559 546 532 518 503 491 479 468 457 451 449 450 449 444 438 432 424 409 392 376 360 345 328 314 301 292 288 290 295 300 308 310 311 313 312 303 295 289 288 287 287 290 296 295 291 288 286 284 282 281 279 276 272 268 262 253 240 223 205 189 178 179 192 204 214 217 216 216 216 214 205 199 206 215 217 216 217 221 230 244 257 267 270 269 264 255 244 231 218 213 216 218 214 209 200 191 184 178 171 166 162 161 159 154 149 142 133 126 118 113 106 100 96 90 85 82 79 76 71 68 64 61 57 53 51 50 47 47 49 53 56 57 61 66 72 78 81 84 85 86 85 81 79 76 72 66 61 57 51 42 34 31 29 29 27 23 19 14 10 8 7 7 8 8 7 6 5 3 2 1 0 0 0 0 0 0 0 0 0 0 0 0 0 0 0 0 0 0 0 0 0 0 0 0 0 0 0 0 0 0 0 0 0 0 0 0 0 0 0 0 0 0 0 0 0 0 0 0 0 0 0 0 0 0 0 0 0 0 0 2 4 8 10 11 12 14 16 16 18 20 22 23 24 24 24 25 27 28 30 31 32 33 34 36 40 42 47 55 61 65 68 68 67 64 61 57 52 46 40 36 34 31 27 26 28 33 37 40 42 43 43 43 43 42 42 40 40 40 39 38 36 36 36 35 35 36 36 36 38 39 40 40 40 40 40 42 42 43 44 44 44 45 45 45 47 48 49 49 50 49 49 49 49 49 49 49 49 49 49 49 49 49 51 51 51 53 53 53 54 54 54 52 52 52 52 52 52 51 49 45 40 34 30 25 21 19 17 14 12 6 0 7 24 37 43 49 56 64 71 77 82 89 97 101 103 106 109 114 119 126 134 138 145 150 150 150 145 141 141 143 144 149 156 162 168 174 179 181 180 178 177 180 183 190 197 204 208 206 204 204 204 204 202 197 193
267 260 252 244 233 221 211 202 196 190 188 197 210 219 222 222 223 222 217 210 201 194 187 174 162 153 147 143 138 135 134 136 139 144 152 162 170 182 192 200 204 209 215 222 232 242 251 259 268 276 282 287 292 298 303 307 310 319 332 346 361 382 403 420 433 444 454 462 472 484 494 502 506 506 505 504 506 508 506 505 507 513 520 527 533 541 548 552 555 560 563 567 571 575 579 585 593 599 604 610 617 623 629 633 638 644 651 659 670 680 687 696 710 724 735 746 752 753 751 747 741 734 726 717 706 694 686 677 664 647 629 611 591 576 563 551 538 523 508 497 489 481 472 462 456 454 452 451 447 443 436 425 410 393 377 362 348 334 321 309 297 286 282 281 283 289 293 295 297 296 290 283 281 281 279 275 277 282 283 281 279 277 275 274 274 276 275 274 272 269 262 249 231 211 193 178 173 180 190 198 200 202 203 207 208 199 190 194 202 202 205 213 223 233 244 258 268 272 272 268 260 251 241 231 225 226 223 219 214 208 200 193 186 183 179 175 173 169 165 159 150 144 138 131 123 115 109 104 98 93 88 85 82 76 72 69 65 59 56 54 52 50 47 46 45 44 44 48 54 59 62 64 68 71 72 72 71 70 70 66 61 57 53 48 42 36 31 29 29 27 22 19 15 12 8 7 7 7 7 6 5 3 1 1 1 0 0 0 0 0 0 0 0 0 0 0 0 0 0 0 0 0 0 0 0 0 0 0 0 0 0 0 0 0 0 0 0 0 0 0 0 0 0 0 0 0 0 0 0 0 0 0 0 0 0 0 0 0 0 0 0 0 0 0 1 5 8 10 12 12 14 15 16 18 19 20 21 21 21 22 22 24 27 29 29 31 33 35 37 39 42 47 54 60 63 65 66 65 62 59 55 49 43 38 35 33 30 26 24 27 32 35 39 41 42 43 43 43 43 42 42 41 39 39 38 36 36 36 34 34 35 35 35 37 38 39 40 40 40 41 41 41 43 44 44 45 45 45 47 47 47 49 49 49 49 49 49 49 49 49 49 49 49 49 49 49 50 50 50 52 52 53 53 53 54 54 52 52 52 52 52 51 49 48 44 39 34 30 25 20 18 16 13 10 4 1 10 27 38 43 49 55 63 70 76 83 90 96 102 105 108 111 116 121 127 133 138 144 149 152 152 150 147 148 153 156 160 165 170 176 182 186 188 187 186 187 188 189 196 206 213 218 218 218 218 218 216 209 200 195
257 253 244 235 227 216 207 200 193 188 186 192 202 210 211 214 214 209 203 199 194 192 186 174 163 155 144 136 133 132 132 135 141 149 159 168 176 185 192 197 200 202 206 212 221 229 238 247 259 271 281 285 288 293 298 301 307 318 332 346 361 380 401 418 430 442 453 459 470 485 496 503 509 513 515 517 519 520 518 517 520 525 531 537 544 549 553 557 560 563 566 570 574 577 580 587 595 601 607 614 619 624 629 634 638 643 648 655 665 674 682 688 701 716 728 738 746 749 747 741 733 726 720 709 696 686 677 666 654 640 625 609 590 573 559 546 530 513 501 494 487 478 470 466 462 458 455 453 451 446 437 423 405 390 376 364 353 342 331 319 308 297 285 277 272 272 277 280 282 281 277 272 270 270 270 267 266 269 270 270 270 269 268 266 266 268 269 269 270 270 266 256 238 216 197 182 171 169 173 181 184 185 188 195 198 192 182 182 188 192 201 212 221 231 243 257 266 269 269 269 265 258 250 241 235 232 228 222 218 215 209 202 199 198 192 188 184 178 172 166 158 153 149 142 136 128 120 114 108 103 97 93 87 82 78 75 71 65 59 56 54 52 50 47 44 42 40 39 41 45 48 50 54 59 60 60 60 59 59 59 57 52 49 45 40 34 28 26 24 22 20 17 15 12 8 5 5 5 5 5 3 2 1 0 0 0 0 0 0 0 0 0 0 0 0 0 0 0 0 0 0 0 0 0 0 0 0 0 0 0 0 0 0 0 0 0 0 0 0 0 0 0 0 0 0 0 0 0 0 0 0 0 0 0 0 0 0 0 0 0 0 0 0 0 1 3 7 10 12 13 14 14 15 16 17 18 19 20 20 21 23 26 28 30 30 32 34 34 36 38 40 45 52 57 61 63 64 63 61 58 54 48 42 38 34 32 28 22 21 25 29 33 37 40 42 43 44 44 44 42 42 41 40 40 39 37 35 35 33 33 33 34 34 35 37 38 39 39 39 40 40 40 42 43 43 43 45 45 45 47 47 47 49 49 49 49 49 49 49 49 49 49 49 49 49 49 50 50 50 50 52 52 53 53 53 53 53 52 52 52 52 51 49 47 44 40 35 30 23 19 17 14 12 7 1 3 14 28 37 42 49 55 63 70 76 83 90 96 102 107 109 112 116 120 124 129 133 138 144 148 150 150 150 153 158 161 164 168 172 178 185 190 193 195 195 195 198 199 203 210 217 222 225 228 229 226 221 212 200 194
244 242 235 228 221 212 204 196 189 184 183 188 194 198 201 205 203 195 189 187 186 186 183 175 166 152 138 133 131 130 132 136 144 155 167 176 182 187 190 190 188 191 197 201 208 216 226 234 247 261 275 282 282 286 293 299 307 319 333 346 360 374 392 409 423 437 449 457 466 478 489 500 507 513 518 521 523 525 525 527 530 533 537 544 551 557 560 561 562 566 569 572 575 578 581 588 596 602 608 614 620 623 628 632 637 641 645 652 660 668 676 683 692 705 717 729 738 742 741 734 725 717 711 700 688 676 666 655 644 633 620 605 588 571 554 539 525 510 498 490 483 475 473 474 469 463 458 456 454 449 439 424 407 396 386 375 364 354 344 331 320 310 297 284 273 267 265 266 267 266 265 263 259 256 256 255 255 255 257 261 261 257 256 256 257 258 257 260 264 266 264 257 242 222 204 188 174 166 164 167 168 168 173 182 186 184 177 175 182 192 205 217 226 235 247 257 264 267 268 268 267 263 258 250 243 238 233 227 223 220 217 212 210 208 203 198 194 188 181 174 167 163 160 155 150 144 135 127 119 113 109 103 97 91 86 81 78 72 65 60 57 55 52 49 46 42 39 39 38 37 37 38 43 49 51 51 51 52 53 52 50 46 44 42 38 33 27 23 20 18 17 15 13 11 8 5 5 5 4 3 2 1 0 0 0 0 0 0 0 0 0 0 0 0 0 0 0 0 0 0 0 0 0 0 0 0 0 0 0 0 0 0 0 0 0 0 0 0 0 0 0 0 0 0 0 0 0 0 0 0 0 0 0 0 0 0 0 0 0 0 0 0 0 0 1 3 5 9 11 12 13 13 14 14 15 17 18 18 19 21 25 27 29 31 31 31 33 34 35 36 38 42 49 55 60 62 62 62 60 56 51 46 40 37 35 31 26 19 18 22 27 31 35 38 40 42 43 44 44 42 42 41 40 40 39 37 36 34 33 32 32 32 32 34 34 36 37 38 38 39 39 39 41 42 43 43 43 45 46 46 46 48 48 49 49 49 49 49 49 49 49 49 49 49 49 49 50 50 50 51 51 52 52 53 53 53 53 52 52 52 52 51 49 46 42 40 35 29 23 19 16 13 11 6 0 3 15 27 36 42 49 56 63 69 76 83 89 96 102 106 109 112 114 117 120 124 129 133 138 143 147 149 149 152 155 159 162 165 169 176 184 191 197 199 200 201 203 206 209 215 220 224 226 229 230 226 217 207 199 193
230 229 226 222 216 208 199 190 185 181 180 183 187 189 193 195 192 184 178 176 177 177 177 173 163 146 133 130 129 129 132 139 147 158 170 178 180 181 181 180 178 180 186 192 197 206 215 226 238 254 268 274 276 279 287 295 306 319 332 346 359 371 383 400 416 431 444 453 460 466 477 487 496 505 514 520 524 527 529 533 536 540 544 550 557 562 564 565 566 567 570 573 576 578 581 588 596 602 608 613 618 622 626 631 634 638 642 646 653 660 669 677 685 694 705 718 727 731 729 723 717 710 703 692 679 668 658 648 638 628 616 603 589 571 553 538 523 510 498 487 480 477 478 479 476 470 465 461 457 450 442 431 419 408 401 391 378 366 357 344 332 320 308 296 282 272 264 258 255 253 253 252 248 242 242 242 242 243 246 251 250 245 244 244 246 249 246 248 251 253 255 252 244 230 212 195 180 168 160 157 156 155 158 165 172 171 166 169 183 196 210 223 232 241 251 258 262 265 267 267 268 267 263 257 250 244 239 233 227 222 218 216 213 210 207 203 200 197 191 183 177 174 170 167 163 157 149 140 130 125 121 114 108 102 95 89 85 79 71 66 63 58 53 50 47 44 42 40 40 38 36 35 36 40 42 43 42 42 42 42 42 41 40 38 35 31 26 20 18 16 14 13 12 10 8 5 4 4 3 2 1 1 0 0 0 0 0 0 0 0 0 0 0 0 0 0 0 0 0 0 0 0 0 0 0 0 0 0 0 0 0 0 0 0 0 0 0 0 0 0 0 0 0 0 0 0 0 0 0 0 0 0 0 0 0 0 0 0 0 0 0 0 0 0 0 1 5 8 10 11 12 12 12 12 14 16 17 19 19 21 25 27 29 30 31 31 31 32 32 33 37 40 46 53 57 59 60 59 57 53 48 42 38 36 33 29 22 17 18 21 26 30 34 37 39 41 43 43 43 42 42 41 40 40 38 36 34 33 32 32 31 31 31 31 32 34 36 37 38 38 39 39 39 41 42 43 43 43 45 46 46 46 48 48 49 49 49 49 49 49 49 49 49 49 49 49 50 50 50 51 51 52 52 52 52 52 52 52 52 52 52 50 47 44 40 36 31 26 20 16 14 12 9 3 0 4 15 27 36 42 49 56 62 67 72 79 86 95 101 104 106 108 110 112 115 120 124 129 133 138 143 145 146 146 149 152 156 161 167 176 184 191 198 201 202 204 206 209 213 216 221 223 224 226 225 223 215 204 195 189
219 219 219 216 211 203 194 187 182 178 176 178 182 185 188 187 183 175 170 169 169 169 170 168 159 142 130 130 128 130 133 139 145 152 162 169 171 170 170 170 174 178 183 188 192 200 209 222 236 252 263 266 269 272 279 290 304 317 329 342 357 367 377 389 404 420 435 446 453 456 463 471 481 491 504 515 522 527 531 536 540 544 548 553 559 563 567 568 569 570 572 574 575 577 581 587 595 600 605 610 614 618 623 627 632 634 638 642 646 652 661 670 678 685 692 702 712 715 713 711 709 703 693 681 673 663 652 643 633 624 615 604 591 570 552 535 519 506 496 486 481 481 483 481 478 474 469 465 461 454 448 442 434 426 418 409 395 381 369 357 344 331 320 308 297 284 272 262 253 247 245 242 238 231 229 230 230 229 232 236 235 231 230 231 233 235 232 233 234 236 239 241 240 235 220 205 188 173 163 157 152 149 147 148 154 157 156 164 180 196 211 225 236 245 250 255 258 261 265 268 268 269 268 264 258 250 243 238 229 221 217 214 210 208 205 203 202 200 196 190 186 183 179 177 172 167 161 153 143 138 134 128 122 115 107 100 94 86 78 73 70 63 58 53 48 46 44 42 41 39 37 35 33 32 32 33 35 36 36 37 37 36 35 35 33 28 22 18 16 15 13 11 10 9 8 6 3 3 2 1 0 0 0 0 0 0 0 0 0 0 0 0 0 0 0 0 0 0 0 0 0 0 0 0 0 0 0 0 0 0 0 0 0 0 0 0 0 0 0 0 0 0 0 0 0 0 0 0 0 0 0 0 0 0 0 0 0 0 0 0 0 0 0 0 0 0 3 7 9 10 10 10 10 12 14 17 18 19 21 23 25 27 28 29 29 29 29 28 30 32 34 38 44 49 53 55 56 55 52 48 43 39 36 32 30 27 21 16 16 21 25 28 30 34 38 40 41 41 41 41 41 40 40 39 37 35 33 31 31 31 30 30 30 30 30 31 33 35 36 37 37 37 39 40 40 40 42 43 44 45 45 46 47 48 48 49 49 49 49 49 49 49 49 49 49 49 50 50 50 51 51 51 52 52 52 52 52 52 51 51 51 49 45 41 36 31 27 23 19 15 11 10 6 1 0 5 15 27 36 43 49 56 59 63 70 76 84 92 97 99 99 99 102 107 109 113 120 125 129 134 137 139 138 139 142 146 150 159 170 178 185 191 197 201 203 204 207 209 212 215 217 219 219 219 218 216 210 199 190 184
213 211 210 208 206 200 191 185 180 176 174 173 178 181 182 180 173 166 161 159 158 157 157 157 152 138 128 128 127 129 134 141 145 149 156 161 163 164 167 172 180 186 191 193 197 202 210 221 235 247 255 256 258 266 274 284 299 311 321 332 346 356 365 376 390 406 423 435 440 442 446 451 461 473 489 506 517 522 530 536 541 545 550 556 561 564 566 568 570 572 574 575 576 578 580 586 592 596 601 605 610 614 619 623 627 631 634 638 642 646 654 662 667 673 679 688 694 699 700 698 696 692 682 675 669 661 649 637 628 620 613 605 592 571 551 533 516 503 495 488 486 486 485 481 478 476 471 468 465 461 458 454 447 441 435 424 411 397 384 371 357 344 331 321 312 299 286 274 263 255 249 244 240 232 228 226 223 220 219 220 219 215 215 216 217 217 216 217 218 219 220 223 228 230 223 213 199 185 173 164 158 151 146 143 142 144 145 154 170 185 202 219 233 242 247 251 256 260 265 268 269 270 270 268 264 257 248 240 230 223 218 213 209 206 203 200 199 196 193 191 190 189 187 184 181 178 173 166 158 152 149 142 135 127 119 112 104 98 90 82 76 69 63 57 52 49 46 43 42 40 38 35 32 31 29 28 30 32 33 34 34 33 32 31 29 24 21 18 16 14 12 10 9 8 7 5 3 3 2 0 0 0 0 0 0 0 0 0 0 0 0 0 0 0 0 0 0 0 0 0 0 0 0 0 0 0 0 0 0 0 0 0 0 0 0 0 0 0 0 0 0 0 0 0 0 0 0 0 0 0 0 0 0 0 0 0 0 0 0 0 0 0 0 0 0 0 1 5 7 8 8 9 11 13 15 19 21 21 23 24 26 27 28 28 28 28 28 27 28 31 33 37 43 47 49 50 51 51 48 43 39 36 32 30 27 22 17 15 15 19 23 25 27 30 34 38 40 40 40 40 40 40 39 38 36 33 31 30 30 30 29 29 29 29 29 30 32 34 35 36 37 37 37 39 40 41 41 41 43 44 45 46 47 47 48 48 48 49 49 49 49 49 49 49 49 49 50 50 50 51 51 51 52 52 52 52 51 51 51 51 49 46 43 39 38 33 27 21 16 12 8 6 3 0 1 7 16 27 35 41 47 52 56 60 66 73 81 89 93 92 92 92 95 99 103 108 114 119 123 128 131 132 131 133 136 141 148 160 171 178 184 189 192 197 200 202 205 208 209 212 214 214 213 212 208 205 200 192 184 179
213 208 204 201 200 196 190 184 180 176 171 170 173 177 176 174 168 162 157 152 150 147 145 143 140 132 127 126 127 130 137 143 147 151 156 160 163 168 174 179 189 198 203 208 210 213 216 222 230 236 244 247 253 265 274 282 294 304 314 322 332 344 353 361 372 387 404 418 422 423 424 427 436 452 471 491 505 513 523 531 535 540 544 551 556 558 561 562 565 570 573 576 577 578 580 584 588 592 596 601 605 610 614 618 623 627 631 635 637 641 645 652 658 662 667 673 677 682 684 683 683 679 673 670 666 660 649 635 623 615 609 603 591 572 551 530 515 505 497 491 490 489 488 485 482 479 475 472 469 466 464 462 458 455 449 439 425 412 399 385 371 358 344 332 323 313 300 288 278 270 262 256 251 243 237 231 227 224 219 213 209 206 203 202 202 202 201 199 201 200 200 205 214 221 220 217 210 199 185 174 166 158 150 145 141 139 139 144 157 172 188 205 220 233 243 249 255 262 267 270 271 272 271 271 268 263 255 245 236 229 221 214 209 206 202 199 195 190 187 187 189 190 190 189 188 186 182 175 169 164 160 154 147 140 131 122 115 108 100 92 83 76 69 63 57 51 46 44 42 41 39 36 34 31 29 27 27 28 30 32 32 30 29 27 25 22 19 17 16 14 11 10 8 7 7 5 3 3 2 1 0 0 0 0 0 0 0 0 0 0 0 0 0 0 0 0 0 0 0 0 0 0 0 0 0 0 0 0 0 0 0 0 0 0 0 0 0 0 0 0 0 0 0 0 0 0 0 0 0 0 0 0 0 0 0 0 0 0 0 0 0 0 0 0 0 0 0 1 3 5 7 9 11 14 17 19 22 24 25 26 27 27 28 28 27 26 25 26 26 29 33 38 42 44 46 46 46 45 43 39 35 33 31 27 23 19 15 13 13 16 20 22 24 28 30 34 37 38 38 39 39 39 37 36 34 31 29 27 27 27 28 28 28 28 30 31 32 33 34 35 36 37 38 38 38 40 41 42 43 44 45 46 46 46 48 48 48 49 49 49 49 49 49 49 50 50 50 50 50 51 51 51 51 51 51 51 51 51 51 50 48 46 44 44 42 37 28 20 16 11 7 3 1 0 2 9 17 26 33 38 43 48 52 57 64 72 79 85 89 87 86 85 86 92 98 103 108 112 116 120 124 125 125 127 133 140 148 159 167 172 178 182 186 191 195 199 204 206 208 210 210 211 209 205 201 197 193 186 179 173
213 207 202 198 193 190 188 183 178 174 170 168 171 173 173 172 168 163 158 152 146 140 137 133 130 126 124 124 125 132 139 144 149 154 160 166 171 179 187 194 203 212 218 223 227 227 227 229 229 233 238 242 251 265 274 281 289 298 307 314 322 332 341 349 359 370 384 397 402 403 404 405 414 433 457 476 489 499 509 517 523 528 531 535 538 541 544 546 552 561 568 573 576 577 578 581 584 588 592 596 600 605 609 614 618 623 626 631 633 635 638 645 651 655 657 661 665 667 670 670 670 668 666 665 661 657 648 634 621 610 603 598 587 569 549 529 514 505 500 497 494 491 490 488 486 483 480 476 472 468 468 467 464 461 457 449 439 427 415 402 387 372 358 344 333 323 314 303 295 286 277 268 261 255 249 242 236 232 226 218 211 207 203 198 195 192 191 190 188 184 181 187 195 205 210 211 211 207 198 186 176 166 157 152 147 141 137 136 143 158 174 190 206 222 237 249 258 265 270 273 274 274 274 273 271 267 261 251 240 231 225 218 213 209 205 200 195 188 183 183 186 189 191 191 191 191 188 182 178 175 170 165 158 150 142 133 124 115 108 101 92 83 76 69 63 56 51 46 44 42 40 38 35 32 31 29 26 25 26 28 29 28 27 26 24 21 19 17 16 14 11 10 8 6 6 5 4 3 1 0 0 0 0 0 0 0 0 0 0 0 0 0 0 0 0 0 0 0 0 0 0 0 0 0 0 0 0 0 0 0 0 0 0 0 0 0 0 0 0 0 0 0 0 0 0 0 0 0 0 0 0 0 0 0 0 0 0 0 0 0 0 0 0 0 0 0 0 0 1 5 7 10 13 15 18 21 23 26 27 28 29 29 28 26 24 22 22 23 25 29 33 37 40 41 42 42 42 40 38 36 33 31 28 24 20 16 13 11 11 13 16 18 20 23 27 31 33 34 35 37 37 36 34 32 30 28 26 25 25 25 27 27 27 29 30 31 32 33 34 35 36 36 37 38 38 38 40 41 42 43 44 45 46 46 47 47 47 48 48 48 49 49 49 50 50 50 50 50 50 51 51 51 51 51 51 51 51 51 50 50 49 49 49 47 41 35 28 22 16 10 5 1 0 0 2 9 17 24 31 37 42 46 51 56 62 69 75 81 82 80 78 78 79 86 93 96 98 102 107 112 116 117 118 123 131 139 147 154 161 164 168 174 180 185 192 199 204 207 209 208 208 208 206 202 197 193 190 183 173 165
209 203 199 195 190 188 185 181 177 173 169 167 169 170 170 170 169 166 163 159 151 140 130 126 124 123 122 123 125 132 139 145 153 162 170 177 186 194 205 212 219 226 232 237 241 241 242 241 241 239 241 245 254 265 274 279 283 289 298 306 311 319 327 337 347 358 368 378 381 383 385 390 401 422 448 465 474 483 492 499 504 508 510 513 514 516 520 525 534 544 553 560 566 570 573 575 578 582 586 591 595 600 604 609 614 618 620 625 628 630 633 637 641 649 652 654 656 659 661 662 662 662 662 662 659 656 649 640 627 616 604 593 583 571 553 535 520 509 503 497 494 492 491 491 489 486 483 479 475 471 470 468 464 461 458 452 446 438 430 418 404 388 372 358 346 336 328 319 310 301 293 281 270 263 260 255 249 243 237 229 224 219 215 209 203 201 197 192 188 183 178 176 177 184 192 197 200 202 201 194 185 176 168 162 155 147 140 134 135 148 162 178 194 213 232 247 259 267 272 274 274 275 275 274 272 270 266 258 249 240 231 225 218 214 208 203 197 192 184 179 181 184 185 187 190 191 190 188 186 182 178 172 165 159 150 142 133 124 115 108 101 92 83 76 69 63 56 51 47 43 40 37 35 32 30 28 26 24 22 23 24 25 25 25 23 21 20 18 16 14 11 10 8 6 6 5 4 3 1 0 0 0 0 0 0 0 0 0 0 0 0 0 0 0 0 0 0 0 0 0 0 0 0 0 0 0 0 0 0 0 0 0 0 0 0 0 0 0 0 0 0 0 0 0 0 0 0 0 0 0 0 0 0 0 0 0 0 0 0 0 0 0 0 0 0 0 0 0 1 4 9 12 14 16 19 23 25 28 30 30 30 30 28 26 22 20 20 22 25 29 33 36 38 38 38 38 38 37 35 33 31 28 25 22 19 15 13 11 10 10 12 14 16 19 23 26 28 30 31 31 31 31 28 26 25 23 22 23 25 26 27 28 29 30 31 32 33 33 33 35 36 36 37 38 38 38 40 40 41 43 44 45 46 46 46 46 47 47 47 48 48 48 48 49 49 50 50 50 50 50 51 51 51 51 51 51 51 50 50 50 50 50 50 47 41 34 28 23 17 11 4 1 0 0 2 8 15 24 31 35 40 46 51 56 61 67 71 74 75 70 66 66 71 78 83 85 86 90 97 102 105 110 116 121 127 133 140 146 153 158 162 168 176 184 193 201 206 209 209 209 206 204 202 199 195 190 187 180 169 159
205 201 197 192 188 184 181 179 177 172 168 165 168 169 168 169 169 168 167 165 157 145 129 121 120 121 121 124 129 134 139 145 155 168 179 188 197 208 218 223 229 235 242 248 251 253 255 254 254 253 253 255 257 265 272 272 275 281 290 298 304 308 314 323 333 344 353 361 363 365 371 380 396 419 443 458 466 472 478 484 487 491 493 496 499 500 502 508 517 527 535 543 548 555 559 561 566 574 580 585 589 594 598 604 608 612 613 615 619 623 627 630 634 640 643 647 649 651 653 655 656 656 659 659 658 655 652 644 633 623 609 594 584 574 559 543 527 512 501 495 492 490 489 491 491 488 485 482 477 472 469 466 461 457 455 451 446 439 432 424 414 401 386 372 359 350 341 333 326 316 306 294 282 273 269 265 260 254 249 243 238 234 231 227 223 219 215 209 202 193 184 175 170 170 175 179 182 188 192 191 189 184 177 171 164 153 144 134 132 143 156 169 186 205 226 244 256 263 269 273 275 275 275 275 274 272 269 263 255 245 237 229 223 218 211 205 199 191 182 174 171 172 173 174 178 182 186 189 188 185 182 178 172 165 159 150 142 133 124 116 109 100 92 83 76 69 63 56 50 44 40 37 34 31 29 27 25 23 20 20 20 22 24 24 22 21 19 16 16 14 11 10 8 6 6 4 3 3 1 0 0 0 0 0 0 0 0 0 0 0 0 0 0 0 0 0 0 0 0 0 0 0 0 0 0 0 0 0 0 0 0 0 0 0 0 0 0 0 0 0 0 0 0 0 0 0 0 0 0 0 0 0 0 0 0 0 0 0 0 0 0 0 0 0 0 0 0 0 0 2 8 12 14 16 19 23 26 28 30 30 30 30 28 25 21 19 19 21 25 29 33 35 35 35 35 35 35 34 32 31 29 25 21 19 17 15 13 10 9 9 9 9 10 13 17 20 21 22 22 22 22 22 21 21 21 21 23 24 25 25 27 29 29 31 32 33 33 34 34 35 36 36 38 38 39 39 40 40 41 43 44 45 45 45 46 46 46 46 47 47 47 47 48 48 48 48 50 50 50 50 50 50 50 50 50 50 50 50 50 50 50 50 48 45 42 36 28 21 17 12 5 0 0 0 2 6 11 20 28 33 39 46 50 54 58 63 65 63 61 59 56 58 64 69 72 72 78 86 95 98 100 105 110 116 122 128 137 144 151 157 163 168 176 185 194 202 207 210 210 207 203 200 198 197 194 189 185 180 169 155
202 198 194 190 185 182 178 174 173 169 165 164 166 166 164 165 168 170 170 167 158 145 128 119 119 119 122 126 132 138 142 147 155 167 179 191 202 211 222 229 235 241 248 253 257 259 261 264 263 263 262 262 262 264 266 261 263 271 280 289 298 304 307 310 316 325 335 342 347 353 363 376 393 415 434 447 455 464 469 475 479 483 485 489 492 494 496 500 507 514 520 526 531 535 539 542 549 560 571 578 582 587 591 596 601 604 606 608 611 615 620 621 626 634 636 638 640 644 647 649 650 651 654 654 654 653 649 643 635 627 614 600 588 575 561 547 531 514 502 494 491 488 487 489 490 488 485 482 478 471 466 461 457 453 447 443 436 430 426 420 415 408 397 385 373 363 355 346 339 328 317 307 295 285 279 275 271 267 263 258 254 250 247 246 244 239 233 228 219 209 197 185 174 167 164 163 164 170 176 179 181 183 181 176 168 158 148 136 128 135 150 164 180 199 219 237 249 258 265 270 272 275 276 277 276 275 273 268 258 247 240 233 227 221 214 207 200 192 183 173 165 159 158 159 161 167 173 179 181 181 179 179 176 171 165 159 152 143 133 124 115 107 97 90 83 75 67 62 54 46 40 36 34 31 29 27 24 22 19 18 19 22 22 22 22 21 19 17 16 14 11 11 9 6 6 4 2 2 1 0 0 0 0 0 0 0 0 0 0 0 0 0 0 0 0 0 0 0 0 0 0 0 0 0 0 0 0 0 0 0 0 0 0 0 0 0 0 0 0 0 0 0 0 0 0 0 0 0 0 0 0 0 0 0 0 0 0 0 0 0 0 0 0 0 0 0 0 0 0 1 6 11 14 16 20 22 25 28 29 29 29 29 27 24 20 18 17 19 23 28 31 32 32 31 31 32 31 30 30 28 26 24 20 18 16 15 13 10 9 8 8 8 10 10 11 14 15 15 16 16 16 18 18 19 21 22 24 25 25 27 29 31 32 33 33 35 35 35 35 37 37 37 39 39 40 40 40 40 42 43 44 44 44 44 44 44 44 45 45 45 45 46 46 47 47 47 49 50 50 50 50 50 50 50 49 50 50 50 50 49 49 49 47 45 42 36 28 20 16 12 5 0 1 4 8 7 7 11 19 27 33 40 47 52 54 57 58 53 50 48 48 49 53 57 63 71 80 89 97 100 101 101 104 110 119 131 142 150 155 159 165 171 178 188 195 201 205 209 209 205 200 198 197 197 194 190 186 182 172 160
196 192 187 185 183 179 175 171 168 165 162 161 163 163 160 161 166 169 170 163 152 137 122 118 118 120 125 131 139 144 149 153 156 163 174 187 200 212 223 230 236 241 247 252 253 256 261 262 262 262 262 262 260 258 254 248 252 259 268 277 289 298 302 304 308 313 320 326 333 345 359 372 384 400 417 431 442 452 459 467 472 479 484 487 490 492 494 499 503 507 511 515 518 521 524 528 535 547 561 569 575 582 586 589 592 596 599 602 604 607 611 614 618 626 627 628 631 637 642 643 644 646 648 648 648 647 644 640 632 623 614 602 588 575 562 548 535 521 509 498 491 486 483 483 484 483 483 481 476 468 462 457 453 445 435 429 423 417 414 411 408 404 400 393 383 375 367 358 350 340 329 319 307 297 290 286 282 279 274 272 271 267 262 261 261 258 252 246 238 226 215 202 189 178 171 165 160 158 161 165 168 172 176 176 171 163 151 137 127 129 142 158 174 191 208 225 238 250 260 265 270 274 276 278 278 277 275 269 261 252 242 235 231 225 218 210 203 195 188 179 169 161 156 151 148 150 154 160 168 172 173 173 173 171 169 164 158 150 140 130 121 114 105 97 90 81 73 65 57 48 40 35 33 30 28 25 23 21 18 17 18 20 21 22 22 21 20 18 16 14 11 10 8 6 6 4 2 2 1 0 0 0 0 0 0 0 0 0 0 0 0 0 0 0 0 0 0 0 0 0 0 0 0 0 0 0 0 0 0 0 0 0 0 0 0 0 0 0 0 0 0 0 0 0 0 0 0 0 0 0 0 0 0 0 0 0 0 0 0 0 0 0 0 0 0 0 0 0 0 0 3 7 11 15 18 21 23 26 28 29 29 27 26 24 21 18 17 18 21 25 28 28 28 27 28 30 30 29 28 27 26 24 21 19 17 15 12 10 9 7 7 9 10 10 10 12 13 14 14 16 17 17 19 21 22 24 25 25 26 28 30 32 34 35 36 36 36 37 37 37 37 39 40 40 40 40 41 41 41 43 43 44 44 44 44 44 44 44 44 44 44 45 45 45 46 47 48 49 50 50 50 50 49 49 49 49 49 49 49 49 49 47 47 45 43 37 28 22 17 11 3 0 4 9 13 14 13 13 15 18 22 29 35 41 44 45 45 43 41 39 41 46 51 56 65 74 83 89 94 97 97 97 103 113 122 133 144 152 159 164 169 175 181 188 193 198 203 207 205 201 198 198 198 198 196 192 188 184 177 168
189 185 181 181 179 177 173 169 165 161 159 159 160 160 156 156 161 165 165 157 144 129 118 116 117 120 128 136 145 151 157 160 160 162 172 186 198 208 217 226 231 234 241 244 244 246 251 253 254 254 254 254 253 250 244 239 244 249 255 264 277 287 293 297 302 306 310 315 323 334 350 365 374 386 400 414 427 439 448 456 463 473 481 484 486 488 492 496 500 501 503 508 513 515 518 522 529 541 554 562 569 575 580 581 583 586 591 592 593 596 601 605 610 615 616 621 624 628 633 636 640 641 642 642 642 641 640 636 629 621 613 601 588 576 566 553 539 528 515 501 491 484 481 479 478 478 480 478 471 462 455 449 444 434 424 416 409 403 399 396 396 397 396 394 389 382 375 368 360 351 340 330 320 310 304 301 297 292 289 289 287 283 280 279 278 275 270 264 256 245 232 219 206 195 186 176 166 157 153 153 153 156 162 165 163 159 150 138 127 126 137 152 168 182 197 211 225 238 249 257 264 270 274 277 278 278 275 270 264 255 247 239 233 227 219 212 204 198 191 182 174 169 163 154 146 140 137 138 146 153 160 166 169 169 167 165 161 154 146 137 127 118 110 103 95 84 75 66 57 48 40 34 31 29 26 23 22 20 17 16 18 19 20 21 21 20 19 17 16 14 11 10 8 6 6 4 2 2 1 0 0 0 0 0 0 0 0 0 0 0 0 0 0 0 0 0 0 0 0 0 0 0 0 0 0 0 0 0 0 0 0 0 0 0 0 0 0 0 0 0 0 0 0 0 0 0 0 0 0 0 0 0 0 0 0 0 0 0 0 0 0 0 0 0 0 0 0 0 0 0 0 3 7 13 17 19 21 24 26 27 27 26 24 22 20 17 16 17 20 22 23 23 23 23 24 26 27 27 26 26 25 23 21 20 18 14 12 10 8 7 7 9 11 11 11 12 14 16 17 18 19 19 22 24 26 26 26 26 27 29 32 34 36 37 37 38 37 37 38 38 39 39 40 40 40 41 41 41 41 43 43 43 43 43 43 43 43 43 43 43 43 43 43 45 45 46 48 49 49 49 49 49 49 49 48 48 49 49 48 48 48 46 45 45 43 38 31 25 20 13 3 0 5 12 16 20 21 21 20 19 19 21 25 28 32 34 35 36 37 38 39 44 52 59 68 75 81 85 89 90 91 94 103 116 127 136 144 151 158 164 170 176 181 186 191 196 200 202 200 197 197 198 200 200 199 195 191 185 177 169
180 178 175 174 175 174 170 166 162 158 156 158 158 157 153 150 153 160 158 151 136 122 115 115 116 121 132 144 154 161 165 169 168 169 175 183 191 200 209 217 223 227 230 231 231 232 238 241 244 245 243 242 241 238 232 230 235 239 244 255 267 275 280 288 296 300 303 308 314 323 337 354 367 378 386 398 413 426 437 444 453 462 470 475 479 481 484 489 495 495 498 503 510 514 516 519 529 540 549 554 560 565 570 571 575 577 579 581 584 587 591 596 601 607 610 615 618 621 624 628 631 634 635 635 636 636 635 631 626 620 614 602 589 580 571 559 546 533 521 507 493 486 482 479 476 475 473 469 462 455 447 440 434 423 413 405 397 389 384 379 380 384 389 389 389 386 381 375 369 361 351 340 330 323 319 317 314 309 307 307 304 300 299 298 296 293 289 283 274 264 251 237 224 212 201 190 178 165 155 147 144 143 146 149 150 150 145 136 125 121 130 144 158 171 185 198 211 224 235 244 253 262 269 274 275 275 274 272 268 260 250 240 235 229 221 212 204 199 194 188 180 174 169 163 153 142 131 127 128 134 143 153 160 164 163 163 160 155 148 140 131 121 113 105 97 86 78 68 57 49 40 34 29 25 22 21 21 19 16 14 15 17 18 19 19 19 18 17 15 13 10 9 8 6 6 5 4 3 1 0 0 0 0 0 0 0 0 0 0 0 0 0 0 0 0 0 0 0 0 0 0 0 0 0 0 0 0 0 0 0 0 0 0 0 0 0 0 0 0 0 0 0 0 0 0 0 0 0 0 0 0 0 0 0 0 0 0 0 0 0 0 0 0 0 0 0 0 0 0 0 0 1 5 11 15 18 19 22 24 24 24 24 22 21 19 16 14 14 17 19 19 19 19 19 20 22 23 23 23 23 23 23 22 20 17 13 10 9 7 6 8 10 12 13 14 14 16 18 20 20 21 24 27 29 30 29 28 28 29 32 34 36 38 39 39 39 39 39 39 39 40 40 40 41 41 41 41 42 42 42 43 42 42 42 41 41 41 41 41 41 41 42 42 43 45 46 47 48 48 48 48 48 48 47 47 47 47 47 47 47 45 45 45 44 42 38 33 27 22 14 3 0 5 12 17 20 22 25 28 29 28 28 29 30 31 33 36 39 41 40 40 41 49 58 66 72 76 78 78 81 89 98 106 117 128 135 141 148 155 161 166 171 176 180 185 191 195 198 196 194 196 199 201 202 201 197 190 181 173 167
172 172 170 170 171 169 164 161 160 157 154 155 155 154 150 147 146 151 151 142 129 120 115 115 117 123 138 153 165 170 173 179 179 179 180 181 184 189 198 206 214 218 222 222 220 221 227 231 235 234 229 228 225 221 218 219 223 229 235 244 254 262 270 280 288 292 297 302 307 314 325 342 357 369 377 385 396 410 423 432 441 449 457 463 467 468 473 480 487 490 494 497 504 510 512 516 525 534 541 545 547 553 558 561 566 568 570 574 577 579 583 587 591 599 603 609 612 614 616 619 622 625 626 628 631 632 631 628 624 619 613 603 594 585 576 566 554 542 530 515 499 489 483 480 478 473 469 464 457 451 445 439 432 422 411 403 393 384 377 370 367 370 375 379 384 385 383 380 375 368 361 352 342 335 332 329 327 323 322 322 320 317 315 313 312 309 305 300 292 281 270 258 244 231 218 205 191 176 165 156 146 140 138 138 139 140 136 130 123 118 123 134 146 160 173 185 196 206 217 229 241 252 261 266 269 273 273 271 269 263 255 245 238 231 223 214 208 204 199 194 188 182 177 171 163 153 140 129 121 120 127 137 148 156 159 159 158 154 149 142 135 126 115 107 97 87 79 68 56 47 38 31 26 22 19 19 20 19 17 14 13 14 16 18 18 18 17 15 14 12 10 10 8 6 6 5 4 3 2 0 0 0 0 0 0 0 0 0 0 0 0 0 0 0 0 0 0 0 0 0 0 0 0 0 0 0 0 0 0 0 0 0 0 0 0 0 0 0 0 0 0 0 0 0 0 0 0 0 0 0 0 0 0 0 0 0 0 0 0 0 0 0 0 0 0 0 0 0 0 0 0 0 3 9 13 16 18 20 22 22 22 22 21 19 16 14 13 13 13 15 15 16 16 16 18 19 20 20 20 22 22 20 20 19 15 10 8 6 6 6 9 11 12 14 16 16 18 20 22 23 24 27 30 33 33 31 30 30 32 34 36 38 39 40 40 40 40 39 39 40 40 40 41 41 41 41 42 42 42 42 42 42 42 41 41 40 40 40 40 40 40 41 41 42 44 44 46 47 48 48 48 48 47 47 46 46 46 46 45 45 44 44 44 43 41 38 33 29 24 19 8 1 5 11 15 18 20 25 30 33 35 37 37 39 42 44 46 49 51 51 49 46 46 51 59 64 66 69 74 80 87 98 106 114 123 129 136 142 149 155 160 165 170 173 177 182 185 189 188 188 194 199 202 201 198 191 182 174 166 160
163 165 166 166 166 164 158 154 153 152 151 152 153 153 151 147 141 144 143 133 120 115 114 115 120 131 148 164 174 178 180 182 183 183 182 179 176 178 187 195 204 210 213 213 211 212 215 220 224 222 217 212 207 205 206 211 215 221 228 235 244 254 264 272 279 285 292 299 303 310 318 330 346 358 366 372 380 394 407 420 430 438 445 451 455 457 463 471 478 483 486 489 493 499 504 509 516 526 532 532 536 544 550 555 559 562 565 569 572 574 577 580 585 591 595 601 604 606 609 611 613 615 617 622 627 627 624 621 620 618 614 606 597 589 581 571 561 549 536 519 504 494 486 482 480 476 472 467 460 455 450 444 438 431 421 412 403 394 385 374 366 362 363 369 377 381 381 380 377 371 366 360 352 345 341 336 332 330 331 331 329 327 326 326 325 324 318 315 309 300 289 277 263 249 236 220 204 190 178 168 156 146 139 135 132 130 127 123 119 114 115 124 137 149 161 173 182 189 201 214 229 240 249 255 261 267 270 271 269 265 259 249 241 234 225 218 214 210 206 201 195 189 183 177 170 160 147 134 121 112 112 120 133 146 153 156 154 151 146 141 136 127 116 108 97 85 76 67 55 43 35 28 23 20 17 18 20 19 17 14 12 12 14 14 15 15 14 14 13 11 9 9 8 6 6 5 3 3 2 0 0 0 0 0 0 0 0 0 0 0 0 0 0 0 0 0 0 0 0 0 0 0 0 0 0 0 0 0 0 0 0 0 0 0 0 0 0 0 0 0 0 0 0 0 0 0 0 0 0 0 0 0 0 0 0 0 0 0 0 0 0 0 0 0 0 0 0 0 0 0 0 0 0 3 10 14 16 18 20 20 20 20 19 17 15 13 11 11 11 12 12 12 14 14 14 15 16 16 18 20 20 19 17 15 10 7 5 5 5 7 9 10 13 15 17 18 20 23 25 27 28 31 34 36 36 34 33 33 34 36 38 40 40 40 40 40 40 40 40 40 40 40 41 41 41 42 42 42 42 42 42 41 41 41 41 39 39 38 38 38 38 40 41 41 43 45 46 47 47 48 47 47 46 46 46 45 45 45 45 43 43 43 41 41 40 36 33 29 25 21 11 1 2 8 12 14 17 21 26 32 36 39 43 48 53 56 57 58 59 59 58 53 50 49 51 55 58 63 70 76 83 92 101 110 118 124 129 136 142 148 154 158 161 164 168 171 176 180 180 183 190 197 200 198 192 184 175 165 158 153
157 159 160 162 161 158 152 148 147 149 151 152 153 154 151 147 139 136 136 126 115 112 114 118 128 143 160 173 179 180 181 183 182 180 179 175 169 170 176 183 192 200 201 201 200 200 201 203 206 207 201 195 192 196 201 207 211 215 222 230 238 247 256 261 266 277 289 299 300 305 311 322 336 349 354 359 365 377 393 409 421 429 437 444 448 451 454 462 471 476 478 479 481 486 494 502 510 517 521 522 527 534 542 548 550 553 558 560 563 568 570 574 580 583 586 590 593 598 599 599 602 608 610 615 619 618 616 615 617 617 616 610 601 593 585 577 567 558 545 529 512 498 488 484 482 480 476 472 466 460 455 452 447 441 433 426 419 410 399 387 374 362 356 359 366 372 375 375 373 369 366 363 357 349 343 338 334 332 331 332 333 333 333 333 332 330 328 324 319 312 304 292 279 265 251 236 221 205 193 182 169 157 148 142 135 130 126 122 118 114 111 113 125 137 148 160 168 176 187 201 214 226 237 244 251 258 262 267 269 266 260 251 244 239 232 225 221 217 214 208 200 194 189 183 177 169 156 142 127 112 104 106 117 131 143 148 149 146 142 138 134 127 115 103 92 80 70 60 50 39 30 23 19 16 15 17 19 19 16 13 10 10 10 11 11 12 12 12 11 10 9 9 7 6 6 5 4 3 2 0 0 0 0 0 0 0 0 0 0 0 0 0 0 0 0 0 0 0 0 0 0 0 0 0 0 0 0 0 0 0 0 0 0 0 0 0 0 0 0 0 0 0 0 0 0 0 0 0 0 0 0 0 0 0 0 0 0 0 0 0 0 0 0 0 0 0 0 0 0 0 0 0 0 1 4 10 14 17 18 19 19 18 17 15 13 12 10 8 8 9 9 9 11 11 11 12 12 13 15 17 18 16 14 10 6 4 4 5 6 8 9 11 14 16 18 20 22 26 29 31 33 36 38 39 39 37 37 37 37 39 40 41 41 41 41 41 40 40 40 40 40 40 41 41 41 41 41 41 41 41 41 40 40 39 39 39 37 36 36 37 39 40 41 42 43 43 45 46 47 47 47 47 45 45 44 44 43 43 42 42 42 40 39 39 37 34 31 28 23 19 11 2 0 3 8 11 13 16 21 25 29 35 42 51 58 64 69 70 69 70 69 64 60 59 59 59 58 61 65 70 77 84 92 102 111 117 122 128 134 139 145 148 148 151 157 160 164 168 172 178 186 194 197 192 184 175 163 154 150 147
151 152 154 156 156 153 147 144 146 149 151 153 155 154 151 147 136 128 124 118 112 112 115 122 135 150 164 172 177 178 179 177 176 172 167 164 159 159 167 173 180 185 187 186 185 185 187 188 191 193 188 185 186 195 202 204 204 210 220 226 232 240 246 249 256 268 282 293 296 298 304 313 325 337 343 349 355 365 378 395 411 422 431 436 439 444 449 456 464 468 470 472 473 477 485 496 507 513 515 517 519 525 531 535 537 542 546 548 552 556 561 568 573 577 578 582 585 587 588 589 592 596 601 605 607 608 609 611 615 618 618 617 610 601 593 585 575 565 553 539 524 508 495 488 484 481 477 474 471 467 463 459 455 451 445 439 432 425 414 401 386 369 355 349 353 358 361 365 366 363 362 361 357 349 341 335 331 329 328 329 331 332 333 333 332 330 327 324 319 313 308 302 291 277 264 251 237 221 208 196 182 170 160 153 145 137 131 125 121 117 111 109 114 124 134 145 155 164 174 188 200 213 225 233 239 247 254 261 266 267 263 257 249 242 236 231 228 224 219 213 207 199 194 189 182 173 162 149 134 117 103 97 100 111 125 133 137 138 137 134 128 122 112 99 87 73 63 53 43 33 26 20 16 13 14 16 18 19 16 12 9 9 9 9 9 10 10 10 10 9 9 8 7 6 5 5 4 3 2 0 0 0 0 0 0 0 0 0 0 0 0 0 0 0 0 0 0 0 0 0 0 0 0 0 0 0 0 0 0 0 0 0 0 0 0 0 0 0 0 0 0 0 0 0 0 0 0 0 0 0 0 0 0 0 0 0 0 0 0 0 0 0 0 0 0 0 0 0 0 0 0 0 0 0 1 4 10 14 16 18 18 17 15 12 12 11 8 7 7 7 7 8 8 8 9 9 9 10 12 14 13 12 10 6 4 3 4 6 8 9 11 13 16 18 20 22 26 29 31 34 37 39 40 40 40 39 39 39 39 41 41 41 42 41 41 41 41 40 40 40 40 41 41 41 41 41 41 41 41 40 40 40 39 39 39 37 36 35 35 37 39 40 40 42 43 43 45 46 46 46 46 46 46 44 44 43 43 43 41 41 41 39 39 37 35 33 30 27 23 19 13 5 0 1 4 7 9 12 14 17 22 28 36 48 59 68 74 77 77 78 76 74 71 69 67 66 66 67 67 68 71 77 83 91 100 108 114 119 123 126 131 133 134 139 144 149 153 158 163 172 182 190 190 182 172 162 151 145 143 143
147 147 148 150 151 146 142 143 146 149 152 155 157 156 152 143 131 122 116 111 110 112 116 124 135 147 158 163 165 166 167 165 163 157 153 152 148 149 157 162 165 170 173 172 171 172 173 173 177 182 181 179 183 193 200 201 200 204 213 218 221 226 232 237 246 260 273 283 288 291 294 301 313 325 335 341 348 354 365 381 398 412 423 427 431 434 440 447 455 461 463 465 466 471 480 491 500 505 510 510 511 515 520 522 525 531 536 540 544 548 553 560 563 569 571 573 576 579 581 583 586 589 593 597 601 604 608 612 616 618 620 620 619 612 603 593 582 572 562 548 534 520 505 492 485 480 477 474 472 471 470 466 461 458 454 450 445 436 425 412 396 378 360 347 342 342 345 351 353 353 353 353 351 347 339 332 327 322 320 321 324 328 331 330 329 326 322 319 313 310 307 303 297 286 276 264 251 237 221 208 196 183 172 163 155 147 140 132 126 121 114 107 106 112 120 131 142 151 161 174 186 197 208 219 228 236 245 253 260 264 265 261 255 249 242 237 234 230 226 219 211 205 199 191 185 177 168 156 141 125 108 95 90 95 104 114 123 129 131 127 120 115 105 93 80 66 55 45 37 29 20 15 12 11 12 14 17 18 15 12 9 8 9 9 8 8 9 9 9 8 7 7 6 5 4 4 3 2 2 1 0 0 0 0 0 0 0 0 0 0 0 0 0 0 0 0 0 0 0 0 0 0 0 0 0 0 0 0 0 0 0 0 0 0 0 0 0 0 0 0 0 0 0 0 0 0 0 0 0 0 0 0 0 0 0 0 0 0 0 0 0 0 0 0 0 0 0 0 0 0 0 0 0 0 0 0 3 9 14 16 15 13 11 9 9 8 6 5 5 5 5 5 5 5 5 7 7 7 9 10 8 6 3 2 3 5 7 7 9 11 13 16 18 20 22 26 28 29 32 35 38 40 40 41 41 41 41 41 41 41 42 42 42 41 41 41 41 41 41 41 41 40 41 41 41 41 40 40 40 40 40 40 38 37 37 35 34 34 36 38 40 41 41 42 43 43 45 46 46 46 46 46 44 44 44 42 42 42 41 41 41 39 38 38 38 36 32 28 25 23 18 10 2 0 1 3 5 7 9 11 16 20 28 42 56 68 77 82 85 86 85 83 80 78 76 74 73 72 72 72 72 73 76 81 89 97 102 107 111 114 119 122 124 128 133 139 145 152 159 168 177 182 180 169 156 148 142 137 137 140
143 143 142 141 140 141 141 143 146 149 153 157 159 159 152 137 123 114 110 109 110 112 115 122 130 137 142 145 145 147 150 149 149 145 141 140 140 143 147 150 152 156 159 160 160 160 160 162 166 170 172 175 181 189 195 198 196 197 204 209 211 213 219 226 235 247 261 272 278 283 287 296 306 315 324 331 339 344 352 365 380 393 407 415 419 424 432 440 447 452 456 458 460 464 473 483 488 492 496 499 499 504 510 516 523 530 536 541 545 550 554 559 561 565 567 569 571 575 578 582 586 588 591 596 602 607 612 617 619 620 622 622 622 619 612 600 588 579 569 558 545 532 519 504 491 482 477 474 474 474 473 471 466 462 459 458 453 445 433 418 401 384 368 355 343 334 331 333 337 339 339 340 340 339 335 331 325 318 314 312 314 319 323 325 324 320 315 311 308 306 303 300 296 291 284 275 263 251 237 222 209 196 184 172 163 155 148 140 131 124 118 110 103 100 104 117 128 137 147 160 172 183 193 204 215 223 233 245 255 261 264 263 260 256 249 243 240 236 230 223 216 210 203 195 187 180 172 163 150 133 116 99 86 85 89 94 104 114 119 116 109 105 95 84 71 58 47 39 31 22 17 13 10 9 10 14 15 15 14 11 9 7 7 7 7 7 8 8 7 7 6 5 3 3 3 2 2 1 1 0 0 0 0 0 0 0 0 0 0 0 0 0 0 0 0 0 0 0 0 0 0 0 0 0 0 0 0 0 0 0 0 0 0 0 0 0 0 0 0 0 0 0 0 0 0 0 0 0 0 0 0 0 0 0 0 0 0 0 0 0 0 0 0 0 0 0 0 0 0 0 0 0 0 0 0 0 0 3 9 12 12 10 6 4 3 3 2 2 2 3 3 2 2 2 3 3 3 4 5 5 4 2 1 2 4 6 8 10 11 13 16 18 20 22 24 27 29 29 31 35 38 39 40 40 42 42 43 43 43 43 42 42 42 42 42 41 41 41 41 40 40 40 40 40 40 40 40 38 38 38 38 38 36 36 34 33 32 33 35 37 39 40 40 42 43 44 45 45 46 45 45 45 43 42 42 41 41 41 40 40 40 40 40 41 41 39 35 31 28 27 24 18 9 2 0 0 1 3 5 8 11 15 24 37 50 64 76 85 89 92 91 90 89 87 85 81 79 79 80 78 76 75 76 79 83 87 93 99 104 109 113 118 123 127 134 142 149 154 159 164 171 175 167 155 145 139 134 132 133 137
138 137 137 136 137 140 142 145 147 150 155 159 161 159 148 129 114 109 108 108 110 112 114 117 120 124 125 127 127 131 134 135 136 137 135 136 137 138 139 139 141 144 147 148 148 148 150 155 157 160 165 169 174 179 184 185 186 189 194 199 203 206 209 216 224 234 247 259 269 275 283 295 304 309 314 320 329 336 343 351 361 372 384 394 401 410 421 431 438 444 446 449 454 459 465 473 478 483 490 496 501 507 513 522 530 538 545 550 551 556 560 562 565 568 570 574 577 580 583 586 589 593 597 602 607 612 617 621 623 624 624 623 622 621 617 607 595 587 579 569 556 543 531 519 504 490 482 477 474 474 473 471 469 466 463 461 458 451 439 421 404 390 378 367 354 340 330 325 324 326 325 325 326 327 327 327 323 317 311 307 307 310 315 318 318 315 310 307 303 302 299 295 292 290 286 280 273 263 251 237 223 210 196 184 172 163 155 146 137 129 122 114 104 98 98 104 113 122 132 143 155 166 177 188 198 209 221 234 246 255 261 263 262 259 255 249 244 239 233 226 221 213 205 197 189 182 174 165 153 139 124 108 91 80 77 79 86 96 104 105 100 94 85 76 63 51 41 34 26 19 15 12 10 8 9 12 14 14 12 11 10 8 7 7 6 6 6 6 6 6 5 4 3 3 2 1 1 1 0 0 0 0 0 0 0 0 0 0 0 0 0 0 0 0 0 0 0 0 0 0 0 0 0 0 0 0 0 0 0 0 0 0 0 0 0 0 0 0 0 0 0 0 0 0 0 0 0 0 0 0 0 0 0 0 0 0 0 0 0 0 0 0 0 0 0 0 0 0 0 0 0 0 0 0 0 0 0 0 3 5 5 4 1 0 0 0 0 0 1 1 1 1 0 0 0 0 1 1 1 1 0 0 1 2 5 8 10 11 13 14 16 18 20 21 24 26 28 29 32 35 37 39 40 40 42 43 43 43 43 43 43 42 42 42 42 41 41 41 41 40 40 40 40 40 40 40 38 37 37 37 37 35 34 33 32 31 31 32 34 37 39 40 41 42 43 44 45 45 45 45 45 43 42 42 41 41 40 40 40 40 40 40 41 41 41 41 39 35 32 31 29 24 17 9 2 0 0 0 1 4 8 11 19 30 43 56 70 83 90 95 97 97 96 94 90 87 86 86 86 85 84 83 83 86 89 92 95 101 109 116 120 127 131 136 144 150 155 158 160 163 165 164 155 145 138 133 131 128 129 132
132 131 132 134 137 140 143 144 148 153 157 161 162 156 141 121 109 106 106 108 109 111 112 113 115 116 118 119 121 122 124 126 127 130 132 133 134 134 135 136 137 138 140 142 143 144 147 151 154 156 160 163 165 168 171 172 174 177 182 188 193 194 196 202 212 220 233 248 261 268 275 287 298 302 306 311 317 323 332 342 350 358 367 376 385 395 406 419 428 434 438 443 452 458 464 473 482 489 497 504 510 516 520 529 537 546 552 554 558 561 563 566 570 575 577 580 583 586 589 593 597 602 606 610 614 618 623 627 628 627 625 623 621 620 616 608 597 591 587 580 569 555 543 531 518 503 490 482 477 475 473 471 469 467 465 462 459 452 441 426 412 399 386 373 360 347 335 326 320 317 315 313 313 314 319 321 319 314 308 303 300 303 308 313 316 314 309 305 301 297 293 289 287 285 284 282 279 273 263 251 238 224 210 197 184 172 163 154 143 133 125 115 106 100 96 96 100 107 117 127 138 150 163 175 185 197 209 221 234 246 255 260 262 261 259 255 248 240 234 230 223 215 206 199 191 183 177 170 159 146 132 117 101 86 75 70 72 81 89 92 90 85 78 69 56 44 36 28 20 14 11 10 9 8 9 11 11 11 11 10 10 9 8 7 6 5 5 5 5 5 4 3 2 1 1 1 0 0 0 0 0 0 0 0 0 0 0 0 0 0 0 0 0 0 0 0 0 0 0 0 0 0 0 0 0 0 0 0 0 0 0 0 0 0 0 0 0 0 0 0 0 0 0 0 0 0 0 0 0 0 0 0 0 0 0 0 0 0 0 0 0 0 0 0 0 0 0 0 0 0 0 0 0 0 0 0 0 0 0 0 0 0 0 0 0 0 0 0 0 0 0 0 0 0 0 0 0 0 0 0 0 0 1 3 6 8 10 11 13 14 16 18 19 21 22 24 26 28 31 34 37 39 41 41 42 43 43 43 43 43 43 43 42 42 42 41 41 41 40 40 39 39 39 39 39 38 36 35 35 34 34 34 32 31 30 30 30 30 33 36 38 39 39 41 43 43 44 45 45 44 44 44 42 41 40 40 40 39 40 40 40 40 41 41 41 41 39 38 36 33 31 28 24 16 6 0 0 0 0 1 4 7 13 23 35 49 62 76 87 94 99 101 101 99 96 94 93 93 93 93 93 93 93 93 97 101 105 111 120 127 131 136 140 146 153 158 161 163 161 160 159 153 145 137 131 128 126 124 125 129
128 130 131 134 137 140 144 146 149 155 159 160 157 147 131 115 106 105 106 107 109 111 113 114 115 117 118 120 122 122 122 124 124 127 129 131 132 133 136 138 139 140 143 147 149 151 155 157 158 159 161 163 164 167 169 170 175 179 180 182 186 188 192 197 203 210 221 237 253 259 263 272 285 292 296 301 307 315 327 341 352 362 371 380 387 394 403 412 422 429 440 450 456 462 471 481 489 499 507 513 519 522 525 531 541 549 553 556 560 563 566 569 574 579 582 585 589 592 596 601 605 610 615 619 621 625 629 631 631 629 625 620 618 615 610 602 595 592 590 586 579 568 555 542 529 514 500 489 481 477 473 470 467 466 464 461 458 452 442 430 419 405 388 374 361 349 340 334 327 321 316 310 307 306 309 310 309 309 305 298 295 297 304 310 313 313 309 304 299 293 288 284 280 279 281 281 279 275 269 262 250 238 224 210 196 182 170 158 145 134 127 120 111 104 100 96 92 95 104 115 125 137 150 162 174 186 197 209 221 234 245 253 258 258 258 256 249 243 237 230 224 216 208 201 193 185 179 172 162 150 137 123 111 98 82 70 65 66 72 77 79 77 72 61 49 40 31 23 17 12 9 8 7 7 7 9 9 9 9 8 8 8 8 6 5 5 4 4 3 3 2 2 1 0 0 0 0 0 0 0 0 0 0 0 0 0 0 0 0 0 0 0 0 0 0 0 0 0 0 0 0 0 0 0 0 0 0 0 0 0 0 0 0 0 0 0 0 0 0 0 0 0 0 0 0 0 0 0 0 0 0 0 0 0 0 0 0 0 0 0 0 0 0 0 0 0 0 0 0 0 0 0 0 0 0 0 0 0 0 0 0 0 0 0 0 0 0 0 0 0 0 0 0 0 0 0 0 0 0 0 0 0 1 3 6 8 9 11 12 14 16 17 17 19 20 23 25 26 28 32 36 39 41 42 43 44 44 43 43 42 42 42 42 42 41 41 41 39 39 39 39 37 37 37 37 35 35 33 32 32 31 31 30 30 29 29 29 29 32 34 36 38 40 41 42 43 44 44 44 43 43 43 41 40 39 39 38 38 38 38 38 39 39 39 41 41 41 40 37 34 31 27 25 22 16 5 0 0 0 0 1 3 7 15 27 42 56 69 79 89 97 102 103 103 101 100 99 99 100 100 100 100 99 100 102 107 113 122 131 138 141 146 150 155 160 166 169 167 163 158 151 141 134 130 126 121 118 119 121 123
